VERSION .7
FIELDS x y z rgb label object
SIZE 4 4 4 4 4 4
TYPE F F F I I I
COUNT 1 1 1 1 1 1
WIDTH 1010
HEIGHT 1
POINTS 1010
VIEWPOINT 0 0 0 1 0 0 0
DATA ascii
0.291504 -0.042938199 -0.41455099 7698804 0 -1
0.292725 -0.042846698 -0.41357401 7698804 0 -1
0.294678 -0.042846698 -0.41357401 7698804 0 -1
0.29663101 -0.042846698 -0.41357401 7698804 0 -1
0.29858401 -0.042846698 -0.41357401 7698804 0 -1
0.30053699 -0.042846698 -0.41357401 7698804 0 -1
0.30249 -0.042846698 -0.41357401 7698804 0 -1
0.304443 -0.042846698 -0.41357401 7698804 0 -1
0.30639601 -0.042846698 -0.41357401 7698804 0 -1
0.30835 -0.042846698 -0.41357401 7698804 0 -1
0.310303 -0.042846698 -0.41357401 7698804 0 -1
0.31225601 -0.042846698 -0.41357401 7698804 0 -1
0.31420901 -0.042846698 -0.41357401 7698804 0 -1
0.31616199 -0.042846698 -0.41357401 7698804 0 -1
0.318115 -0.042846698 -0.41357401 7698804 0 -1
0.320068 -0.042846698 -0.41357401 7698804 0 -1
0.32202101 -0.042846698 -0.41357401 7698804 0 -1
0.323975 -0.042846698 -0.41357401 7698804 0 -1
0.325928 -0.042846698 -0.41357401 7698804 0 -1
0.326904 -0.042755101 -0.41259801 7698804 0 -1
0.328857 -0.042755101 -0.41259801 7698804 0 -1
0.33081099 -0.042755101 -0.41259801 7698804 0 -1
0.332764 -0.042755101 -0.41259801 7698804 0 -1
0.33471701 -0.042755101 -0.41259801 7698804 0 -1
0.33667001 -0.042755101 -0.41259801 7698804 0 -1
0.33862299 -0.042755101 -0.41259801 7698804 0 -1
0.34057599 -0.042755101 -0.41259801 7698804 0 -1
0.342529 -0.042755101 -0.41259801 7698804 0 -1
0.344482 -0.042755101 -0.41259801 7698804 0 -1
0.34643599 -0.042755101 -0.41259801 7698804 0 -1
0.348389 -0.042755101 -0.41259801 7698804 0 -1
0.35034201 -0.042755101 -0.41259801 7698804 0 -1
0.351318 -0.042633101 -0.41137701 7698804 0 -1
0.35327101 -0.042633101 -0.41137701 7698804 0 -1
0.355225 -0.042633101 -0.41137701 7698804 0 -1
0.357178 -0.042633101 -0.41137701 7698804 0 -1
0.35913101 -0.042633101 -0.41137701 7698804 0 -1
0.36108401 -0.042633101 -0.41137701 7698804 0 -1
0.36206099 -0.0425415 -0.4104 7698804 0 -1
0.364014 -0.0425415 -0.4104 7698804 0 -1
0.36596701 -0.0425415 -0.4104 7698804 0 -1
0.36792001 -0.0425415 -0.4104 7698804 0 -1
0.36987299 -0.0425415 -0.4104 7698804 0 -1
0.37182599 -0.0425415 -0.4104 7698804 0 -1
0.373779 -0.0425415 -0.4104 7698804 0 -1
0.375732 -0.0425415 -0.4104 7698804 0 -1
0.37744099 -0.0425415 -0.4104 7698804 0 -1
0.37939501 -0.0425415 -0.4104 7698804 0 -1
0.38134801 -0.0425415 -0.4104 7698804 0 -1
0.38330099 -0.0425415 -0.4104 7698804 0 -1
0.385254 -0.0425415 -0.4104 7698804 0 -1
0.387207 -0.0425415 -0.4104 7698804 0 -1
0.38916001 -0.0425415 -0.4104 7698804 0 -1
0.39111301 -0.0425415 -0.4104 7698804 0 -1
0.39306599 -0.0425415 -0.4104 7698804 0 -1
0.39502001 -0.0425415 -0.4104 7698804 0 -1
0.39697301 -0.0425415 -0.4104 7698804 0 -1
0.398682 -0.0425415 -0.4104 7698804 0 -1
0.400635 -0.0425415 -0.4104 7698804 0 -1
0.40258801 -0.0425415 -0.4104 7698804 0 -1
0.40454099 -0.0425415 -0.4104 7698804 0 -1
0.40649399 -0.0425415 -0.4104 7698804 0 -1
-0.33642599 -0.049591102 -0.457764 9605521 0 -1
-0.33447301 -0.049591102 -0.457764 9474192 0 -1
-0.332275 -0.049591102 -0.457764 9408401 0 -1
-0.329346 -0.049469002 -0.456543 9539987 0 -1
-0.32714799 -0.049469002 -0.456543 9671573 0 -1
-0.32421899 -0.049346901 -0.45556599 9342608 0 -1
-0.32226601 -0.049346901 -0.45556599 9539987 0 -1
-0.320068 -0.049346901 -0.45556599 9342606 0 -1
-0.317139 -0.049255401 -0.45458999 9671824 0 -1
-0.31494099 -0.049255401 -0.45458999 9540238 0 -1
-0.31298801 -0.049255401 -0.45458999 9605778 0 -1
-0.31079099 -0.049255401 -0.45458999 9409171 0 -1
-0.30859399 -0.049255401 -0.45458999 9540757 0 -1
-0.30639601 -0.049255401 -0.45458999 9737107 0 -1
-0.304443 -0.049255401 -0.45458999 9868693 0 -1
-0.301514 -0.049133301 -0.45361301 9999511 0 -1
-0.29931599 -0.049133301 -0.45361301 9671316 0 -1
-0.29736301 -0.049133301 -0.45361301 9409171 0 -1
-0.29516599 -0.049133301 -0.45361301 9474192 0 -1
-0.29296899 -0.049133301 -0.45361301 9474192 0 -1
-0.29028299 -0.0490417 -0.45263699 9605521 0 -1
-0.288086 -0.0490417 -0.45263699 9737107 0 -1
-0.285889 -0.0490417 -0.45263699 9671314 0 -1
-0.28393599 -0.0490417 -0.45263699 9737107 0 -1
-0.28100601 -0.0489197 -0.45166001 9671314 0 -1
-0.279053 -0.0489197 -0.45166001 9342608 0 -1
-0.27685499 -0.0489197 -0.45166001 9671573 0 -1
-0.27465799 -0.0489197 -0.45166001 9539987 0 -1
-0.27270499 -0.0489197 -0.45166001 9670544 0 -1
-0.269775 -0.048828099 -0.45068401 9737107 0 -1
-0.267822 -0.048828099 -0.45068401 9934486 0 -1
-0.265625 -0.048828099 -0.45068401 9934739 0 -1
-0.263428 -0.048828099 -0.45068401 9671314 0 -1
-0.26074201 -0.048706099 -0.449707 9605004 0 -1
-0.258789 -0.048706099 -0.449707 9801870 0 -1
-0.25659201 -0.048706099 -0.449707 9802383 0 -1
-0.25390601 -0.048614498 -0.44872999 10065302 0 -1
-0.25170901 -0.048614498 -0.44872999 10065302 0 -1
-0.24975599 -0.048614498 -0.44872999 10000279 0 -1
-0.24707 -0.048492402 -0.44751 9868693 0 -1
-0.244995 -0.048492402 -0.44751 9868695 0 -1
-0.24292 -0.048492402 -0.44751 9868946 0 -1
-0.240723 -0.048492402 -0.44751 10263704 0 -1
-0.238159 -0.048370399 -0.44653299 9999762 0 -1
-0.236084 -0.048370399 -0.44653299 9999762 0 -1
-0.233887 -0.048370399 -0.44653299 9736590 0 -1
-0.231812 -0.048370399 -0.44653299 9801870 0 -1
-0.229736 -0.048370399 -0.44653299 9801870 0 -1
-0.227051 -0.048278801 -0.445557 10131348 0 -1
-0.224976 -0.048278801 -0.445557 10131348 0 -1
-0.2229 -0.048278801 -0.445557 10131348 0 -1
-0.220825 -0.048278801 -0.445557 9934739 0 -1
-0.218262 -0.048156701 -0.44457999 9671567 0 -1
-0.216187 -0.048156701 -0.44457999 9868946 0 -1
-0.214111 -0.048156701 -0.44457999 9868946 0 -1
-0.211914 -0.048156701 -0.44457999 10000532 0 -1
-0.209839 -0.048156701 -0.44457999 9802383 0 -1
-0.207764 -0.048156701 -0.44457999 9801868 0 -1
-0.2052 -0.0480652 -0.44360399 9801868 0 -1
-0.203125 -0.0480652 -0.44360399 9736590 0 -1
-0.20105 -0.0480652 -0.44360399 9999762 0 -1
-0.198975 -0.0480652 -0.44360399 9605002 0 -1
-0.196899 -0.0480652 -0.44360399 9539209 0 -1
-0.194824 -0.0480652 -0.44360399 9670795 0 -1
-0.19274899 -0.0480652 -0.44360399 9605002 0 -1
-0.19018599 -0.0479431 -0.44262701 9276037 0 -1
-0.18810999 -0.0479431 -0.44262701 9276807 0 -1
-0.18603501 -0.0479431 -0.44262701 9145223 0 -1
-0.18396001 -0.0479431 -0.44262701 9276809 0 -1
-0.181885 -0.0479431 -0.44262701 9408395 0 -1
-0.17981 -0.0479431 -0.44262701 9342859 0 -1
-0.177734 -0.0479431 -0.44262701 9013894 0 -1
-0.175171 -0.0478516 -0.44165 8421757 0 -1
-0.173096 -0.0478516 -0.44165 8750212 0 -1
-0.171021 -0.0478516 -0.44165 8947591 0 -1
-0.168945 -0.0478516 -0.44165 8947591 0 -1
-0.16687 -0.0478516 -0.44165 8816005 0 -1
-0.16442899 -0.0477295 -0.44067401 8947591 0 -1
-0.16235401 -0.0477295 -0.44067401 8684678 0 -1
-0.16027801 -0.0477295 -0.44067401 8553092 0 -1
-0.15820301 -0.0477295 -0.44067401 8422276 0 -1
-0.155762 -0.0476074 -0.439697 8356483 0 -1
-0.153687 -0.0476074 -0.439697 8290688 0 -1
-0.151733 -0.0476074 -0.439697 8487297 0 -1
-0.14929201 -0.047515899 -0.43847701 8290688 0 -1
-0.14721701 -0.047515899 -0.43847701 8093309 0 -1
-0.145142 -0.047515899 -0.43847701 8027516 0 -1
-0.1427 -0.047393799 -0.4375 7698551 0 -1
-0.140747 -0.047393799 -0.4375 7698551 0 -1
-0.13867199 -0.047393799 -0.4375 7830137 0 -1
-0.13659699 -0.047393799 -0.4375 7632758 0 -1
-0.13452099 -0.047393799 -0.4375 7632760 0 -1
-0.13244601 -0.047393799 -0.4375 7435379 0 -1
-0.130371 -0.047393799 -0.4375 7304563 0 -1
-0.128296 -0.047393799 -0.4375 7107186 0 -1
-0.126343 -0.047393799 -0.4375 7238772 0 -1
-0.124268 -0.047393799 -0.4375 7238002 0 -1
-0.122192 -0.047393799 -0.4375 7238002 0 -1
-0.120117 -0.047393799 -0.4375 7172209 0 -1
-0.118103 -0.047393799 -0.4375 7369586 0 -1
-0.116028 -0.047393799 -0.4375 7238000 0 -1
-0.113708 -0.047302201 -0.43652299 7040621 0 -1
-0.111633 -0.047302201 -0.43652299 7238000 0 -1
-0.109619 -0.047302201 -0.43652299 7435379 0 -1
-0.107544 -0.047302201 -0.43652299 7435381 0 -1
-0.105469 -0.047302201 -0.43652299 7435381 0 -1
-0.103455 -0.047302201 -0.43652299 7238000 0 -1
-0.101135 -0.047180202 -0.43554699 7369586 0 -1
-0.099121101 -0.047180202 -0.43554699 7369586 0 -1
-0.097045898 -0.047180202 -0.43554699 7106414 0 -1
-0.095031701 -0.047180202 -0.43554699 6844012 0 -1
-0.092956498 -0.047180202 -0.43554699 6974828 0 -1
-0.090881303 -0.047180202 -0.43554699 6908265 0 -1
-0.088867202 -0.047180202 -0.43554699 6908265 0 -1
-0.086792 -0.047180202 -0.43554699 6909035 0 -1
-0.084533699 -0.047088601 -0.43457001 6909035 0 -1
-0.082519501 -0.047088601 -0.43457001 6711656 0 -1
-0.080444299 -0.047088601 -0.43457001 6645863 0 -1
-0.078430198 -0.047088601 -0.43457001 6580070 0 -1
-0.076416001 -0.047088601 -0.43457001 6580070 0 -1
-0.074340798 -0.047088601 -0.43457001 6448484 0 -1
-0.072326697 -0.047088601 -0.43457001 6579300 0 -1
-0.070251502 -0.047088601 -0.43457001 6447714 0 -1
-0.068054199 -0.046966601 -0.43359399 6447714 0 -1
-0.066040002 -0.046966601 -0.43359399 6645863 0 -1
-0.063964799 -0.046966601 -0.43359399 6448484 0 -1
-0.061950698 -0.046966601 -0.43359399 6448484 0 -1
-0.059905998 -0.046966601 -0.43359399 6645863 0 -1
-0.057739299 -0.046844501 -0.43261701 6514277 0 -1
-0.055694599 -0.046844501 -0.43261701 6316898 0 -1
-0.053680401 -0.046844501 -0.43261701 6514277 0 -1
-0.051513702 -0.0467529 -0.43164101 6119519 0 -1
-0.049469002 -0.0467529 -0.43164101 6053979 0 -1
-0.0474548 -0.0467529 -0.43164101 6119002 0 -1
-0.045410201 -0.0467529 -0.43164101 6119002 0 -1
-0.043396 -0.0467529 -0.43164101 5855830 0 -1
-0.041259799 -0.0466309 -0.430664 5987416 0 -1
-0.039245602 -0.0466309 -0.430664 5790037 0 -1
-0.037231401 -0.0466309 -0.430664 5790037 0 -1
-0.035186801 -0.0466309 -0.430664 5790037 0 -1
-0.0331726 -0.0466309 -0.430664 5526865 0 -1
-0.0310822 -0.046539299 -0.429443 5526865 0 -1
-0.029052701 -0.046539299 -0.429443 5329486 0 -1
-0.0270386 -0.046539299 -0.429443 5461072 0 -1
-0.0250092 -0.046539299 -0.429443 5461072 0 -1
-0.022995001 -0.046539299 -0.429443 5329486 0 -1
-0.0209808 -0.046539299 -0.429443 5461072 0 -1
-0.018951399 -0.046539299 -0.429443 5395279 0 -1
-0.016937301 -0.046539299 -0.429443 5658451 0 -1
-0.0149155 -0.046539299 -0.429443 5658451 0 -1
-0.0129013 -0.046539299 -0.429443 5987416 0 -1
-0.0108795 -0.046539299 -0.429443 5790037 0 -1
-0.0088348398 -0.046417199 -0.42846701 5526865 0 -1
-0.0068206801 -0.046417199 -0.42846701 5724244 0 -1
-0.00480652 -0.046417199 -0.42846701 5724244 0 -1
-0.00279236 -0.046417199 -0.42846701 5526865 0 -1
-0.00077676802 -0.046417199 -0.42846701 5724244 0 -1
0.00123501 -0.046325698 -0.42749 5658451 0 -1
0.0032463099 -0.046325698 -0.42749 5526865 0 -1
0.00525665 -0.046325698 -0.42749 5855830 0 -1
0.0072670002 -0.046325698 -0.42749 5921623 0 -1
0.0092544602 -0.046203598 -0.426514 5988186 0 -1
0.011261 -0.046203598 -0.426514 5790807 0 -1
0.0132675 -0.046203598 -0.426514 5856600 0 -1
0.015274 -0.046203598 -0.426514 6119772 0 -1
0.017272901 -0.046203598 -0.426514 6251358 0 -1
0.0192871 -0.046203598 -0.426514 6185312 0 -1
0.021286 -0.046203598 -0.426514 6316898 0 -1
0.023300201 -0.046203598 -0.426514 6448484 0 -1
0.0252991 -0.046203598 -0.426514 6448484 0 -1
0.027313201 -0.046203598 -0.426514 6053726 0 -1
0.0293121 -0.046203598 -0.426514 5856347 0 -1
0.031311002 -0.046203598 -0.426514 6119519 0 -1
0.033325199 -0.046203598 -0.426514 5987933 0 -1
0.035247799 -0.046112102 -0.42553699 6381921 0 -1
0.037231401 -0.046112102 -0.42553699 6447714 0 -1
0.039245602 -0.046112102 -0.42553699 6514277 0 -1
0.041259799 -0.046112102 -0.42553699 6316898 0 -1
0.043243401 -0.046112102 -0.42553699 6448484 0 -1
0.045257598 -0.046112102 -0.42553699 6316898 0 -1
0.0472412 -0.046112102 -0.42553699 6119519 0 -1
0.049133301 -0.045990001 -0.42456099 6645863 0 -1
0.051116899 -0.045990001 -0.42456099 6580323 0 -1
0.0531311 -0.045990001 -0.42456099 6711909 0 -1
0.055114701 -0.045990001 -0.42456099 6777702 0 -1
0.057128899 -0.045990001 -0.42456099 6711909 0 -1
0.0591125 -0.045990001 -0.42456099 6975081 0 -1
0.060974099 -0.045867901 -0.42358401 7040874 0 -1
0.062927201 -0.045867901 -0.42358401 6975081 0 -1
0.064941399 -0.045867901 -0.42358401 6777702 0 -1
0.066955604 -0.045867901 -0.42358401 6909288 0 -1
0.068908699 -0.045867901 -0.42358401 6975081 0 -1
0.070922904 -0.045867901 -0.42358401 6909288 0 -1
0.072936997 -0.045867901 -0.42358401 6448484 0 -1
0.074890099 -0.045867901 -0.42358401 7040621 0 -1
0.076904297 -0.045867901 -0.42358401 7237483 0 -1
0.0788574 -0.045867901 -0.42358401 7106667 0 -1
0.080871597 -0.045867901 -0.42358401 7106667 0 -1
0.082885697 -0.045867901 -0.42358401 7106667 0 -1
0.084838897 -0.045867901 -0.42358401 7237483 0 -1
0.086852998 -0.045867901 -0.42358401 7369069 0 -1
0.088867202 -0.045867901 -0.42358401 7369839 0 -1
0.0906372 -0.045776401 -0.422607 7041644 0 -1
0.092590302 -0.045776401 -0.422607 6975851 0 -1
0.0946045 -0.045776401 -0.422607 7041391 0 -1
0.096557602 -0.045776401 -0.422607 6908265 0 -1
0.0985718 -0.045776401 -0.422607 7105644 0 -1
0.100342 -0.045654301 -0.42163101 7237230 0 -1
0.102295 -0.045654301 -0.42163101 7697781 0 -1
0.104309 -0.045654301 -0.42163101 6974828 0 -1
0.106262 -0.045654301 -0.42163101 7237230 0 -1
0.108276 -0.045654301 -0.42163101 7171437 0 -1
0.110229 -0.045654301 -0.42163101 7631990 0 -1
0.112244 -0.045654301 -0.42163101 7566967 0 -1
0.114197 -0.045654301 -0.42163101 7435379 0 -1
0.116211 -0.045654301 -0.42163101 7501172 0 -1
0.118164 -0.045654301 -0.42163101 7566965 0 -1
0.120117 -0.045654301 -0.42163101 7501174 0 -1
0.122131 -0.045654301 -0.42163101 7370358 0 -1
0.124084 -0.045654301 -0.42163101 7436151 0 -1
0.12609901 -0.045654301 -0.42163101 7370358 0 -1
0.128052 -0.045654301 -0.42163101 7369586 0 -1
0.130005 -0.045654301 -0.42163101 7501172 0 -1
0.131714 -0.045562699 -0.42041001 7501425 0 -1
0.13366701 -0.045562699 -0.42041001 7698804 0 -1
0.13562 -0.045562699 -0.42041001 7633011 0 -1
0.137573 -0.045562699 -0.42041001 7238253 0 -1
0.13964801 -0.045562699 -0.42041001 7435632 0 -1
0.14123499 -0.0454407 -0.41943401 7435632 0 -1
0.143188 -0.0454407 -0.41943401 7698802 0 -1
0.145142 -0.0454407 -0.41943401 7435630 0 -1
0.14721701 -0.0454407 -0.41943401 7633009 0 -1
0.14917 -0.0454407 -0.41943401 7698802 0 -1
0.150757 -0.045349099 -0.418457 7567218 0 -1
0.15271001 -0.045349099 -0.418457 7698802 0 -1
0.154663 -0.045349099 -0.418457 7830388 0 -1
0.156616 -0.045349099 -0.418457 7632239 0 -1
0.15856899 -0.045349099 -0.418457 7632239 0 -1
0.160156 -0.045227099 -0.41747999 8092792 0 -1
0.162231 -0.045227099 -0.41747999 7961204 0 -1
0.164185 -0.045227099 -0.41747999 7697775 0 -1
0.16613799 -0.045227099 -0.41747999 7631982 0 -1
0.168091 -0.045227099 -0.41747999 7566448 0 -1
0.170044 -0.045227099 -0.41747999 7961204 0 -1
0.172363 -0.045349099 -0.418457 7763825 0 -1
0.174316 -0.045349099 -0.418457 7698032 0 -1
0.176392 -0.045349099 -0.418457 8026999 0 -1
0.17834499 -0.045349099 -0.418457 7763827 0 -1
0.180298 -0.045349099 -0.418457 7763827 0 -1
0.18176299 -0.045227099 -0.41747999 7632241 0 -1
0.183716 -0.045227099 -0.41747999 7698034 0 -1
0.185791 -0.045227099 -0.41747999 7697777 0 -1
0.18774401 -0.045227099 -0.41747999 7829620 0 -1
0.190063 -0.045349099 -0.418457 7829620 0 -1
0.19165 -0.045227099 -0.41747999 7763827 0 -1
0.19360401 -0.045227099 -0.41747999 7896181 0 -1
0.195557 -0.045227099 -0.41747999 7698032 0 -1
0.19751 -0.045227099 -0.41747999 7697775 0 -1
0.19946299 -0.045227099 -0.41747999 7698032 0 -1
0.201416 -0.045227099 -0.41747999 7698034 0 -1
0.20336901 -0.045227099 -0.41747999 7501425 0 -1
0.205322 -0.045227099 -0.41747999 7370356 0 -1
0.20678701 -0.045104999 -0.416504 7303276 0 -1
0.20886201 -0.045104999 -0.416504 7040104 0 -1
0.210815 -0.045104999 -0.416504 7105640 0 -1
0.212769 -0.045104999 -0.416504 7434352 0 -1
0.21472199 -0.045104999 -0.416504 7171437 0 -1
0.216675 -0.045104999 -0.416504 6974054 0 -1
0.218628 -0.045104999 -0.416504 6973031 0 -1
0.220581 -0.045104999 -0.416504 6973031 0 -1
0.222534 -0.045104999 -0.416504 7105387 0 -1
0.22448701 -0.045104999 -0.416504 6974830 0 -1
0.22644 -0.045104999 -0.416504 6909037 0 -1
0.228394 -0.045104999 -0.416504 6909035 0 -1
0.23034699 -0.045104999 -0.416504 6844014 0 -1
0.2323 -0.045104999 -0.416504 7107186 0 -1
0.23376501 -0.045013402 -0.41552699 7369588 0 -1
0.235718 -0.045013402 -0.41552699 7238000 0 -1
0.237671 -0.045013402 -0.41552699 7435379 0 -1
0.23962399 -0.045013402 -0.41552699 7632760 0 -1
0.241577 -0.045013402 -0.41552699 7567737 0 -1
0.24353001 -0.045013402 -0.41552699 7830137 0 -1
0.245483 -0.045013402 -0.41552699 7961723 0 -1
0.24682599 -0.044891398 -0.41455099 7959926 0 -1
0.248779 -0.044891398 -0.41455099 7368559 0 -1
0.250732 -0.044891398 -0.41455099 7566965 0 -1
0.25268599 -0.044891398 -0.41455099 7699323 0 -1
0.254639 -0.044891398 -0.41455099 7830909 0 -1
0.25659201 -0.044891398 -0.41455099 7830909 0 -1
0.25854501 -0.044891398 -0.41455099 7765116 0 -1
0.260254 -0.044891398 -0.41455099 7699323 0 -1
0.262207 -0.044891398 -0.41455099 7830139 0 -1
0.26416001 -0.044891398 -0.41455099 7698551 0 -1
0.26611301 -0.044891398 -0.41455099 7566965 0 -1
0.26806599 -0.044891398 -0.41455099 7830137 0 -1
0.27002001 -0.044891398 -0.41455099 7830137 0 -1
0.27197301 -0.044891398 -0.41455099 7765114 0 -1
0.27392599 -0.044891398 -0.41455099 7765114 0 -1
0.275879 -0.044891398 -0.41455099 7765114 0 -1
0.277832 -0.044891398 -0.41455099 7765114 0 -1
0.27978501 -0.044891398 -0.41455099 7765114 0 -1
0.28173801 -0.044891398 -0.41455099 7765114 0 -1
0.28369099 -0.044891398 -0.41455099 7765114 0 -1
0.28564501 -0.044891398 -0.41455099 7765114 0 -1
0.28759801 -0.044891398 -0.41455099 7765114 0 -1
0.28955099 -0.044891398 -0.41455099 7765114 0 -1
0.29077101 -0.044799801 -0.41357401 7765114 0 -1
0.292725 -0.044799801 -0.41357401 7765114 0 -1
0.294678 -0.044799801 -0.41357401 7765114 0 -1
0.29663101 -0.044799801 -0.41357401 7765114 0 -1
0.29858401 -0.044799801 -0.41357401 7765114 0 -1
0.30053699 -0.044799801 -0.41357401 7765114 0 -1
0.30249 -0.044799801 -0.41357401 7765114 0 -1
0.304443 -0.044799801 -0.41357401 7765114 0 -1
0.30639601 -0.044799801 -0.41357401 7765114 0 -1
0.30835 -0.044799801 -0.41357401 7765114 0 -1
0.310303 -0.044799801 -0.41357401 7765114 0 -1
0.31225601 -0.044799801 -0.41357401 7765114 0 -1
0.31420901 -0.044799801 -0.41357401 7765114 0 -1
0.31616199 -0.044799801 -0.41357401 7765114 0 -1
0.318115 -0.044799801 -0.41357401 7765114 0 -1
0.320068 -0.044799801 -0.41357401 7765114 0 -1
0.32202101 -0.044799801 -0.41357401 7765114 0 -1
0.323975 -0.044799801 -0.41357401 7765114 0 -1
0.32519501 -0.044677701 -0.41259801 7765114 0 -1
0.326904 -0.044677701 -0.41259801 7765114 0 -1
0.328857 -0.044677701 -0.41259801 7765114 0 -1
0.33081099 -0.044677701 -0.41259801 7765114 0 -1
0.332764 -0.044677701 -0.41259801 7765114 0 -1
0.33471701 -0.044677701 -0.41259801 7765114 0 -1
0.33667001 -0.044677701 -0.41259801 7765114 0 -1
0.33862299 -0.044677701 -0.41259801 7765114 0 -1
0.34057599 -0.044677701 -0.41259801 7765114 0 -1
0.342529 -0.044677701 -0.41259801 7765114 0 -1
0.344482 -0.044677701 -0.41259801 7765114 0 -1
0.34643599 -0.044677701 -0.41259801 7765114 0 -1
0.34741199 -0.0445862 -0.41137701 7765114 0 -1
0.349365 -0.0445862 -0.41137701 7765114 0 -1
0.351318 -0.0445862 -0.41137701 7765114 0 -1
0.35327101 -0.0445862 -0.41137701 7765114 0 -1
0.355225 -0.0445862 -0.41137701 7765114 0 -1
0.357178 -0.0445862 -0.41137701 7765114 0 -1
0.35913101 -0.0445862 -0.41137701 7765114 0 -1
0.36108401 -0.0445862 -0.41137701 7765114 0 -1
0.36206099 -0.0444641 -0.4104 7765114 0 -1
0.364014 -0.0444641 -0.4104 7765114 0 -1
0.36596701 -0.0444641 -0.4104 7765114 0 -1
0.36792001 -0.0444641 -0.4104 7765114 0 -1
0.36987299 -0.0444641 -0.4104 7765114 0 -1
0.37182599 -0.0444641 -0.4104 7765114 0 -1
0.373779 -0.0444641 -0.4104 7765114 0 -1
0.375732 -0.0444641 -0.4104 7765114 0 -1
0.37744099 -0.0444641 -0.4104 7765114 0 -1
0.37939501 -0.0444641 -0.4104 7765114 0 -1
0.38134801 -0.0444641 -0.4104 7765114 0 -1
0.38330099 -0.0444641 -0.4104 7765114 0 -1
0.385254 -0.0444641 -0.4104 7765114 0 -1
0.387207 -0.0444641 -0.4104 7765114 0 -1
0.38916001 -0.0444641 -0.4104 7765114 0 -1
0.39111301 -0.0444641 -0.4104 7765114 0 -1
0.39208999 -0.0443726 -0.40942401 7765114 0 -1
0.394043 -0.0443726 -0.40942401 7765114 0 -1
0.39697301 -0.0444641 -0.4104 7765114 0 -1
0.398682 -0.0444641 -0.4104 7765114 0 -1
0.400635 -0.0444641 -0.4104 7765114 0 -1
0.40258801 -0.0444641 -0.4104 7765114 0 -1
0.40454099 -0.0444641 -0.4104 7765114 0 -1
0.40649399 -0.0444641 -0.4104 7765114 0 -1
-0.33642599 -0.051727299 -0.457764 9538962 0 -1
-0.33447301 -0.051727299 -0.457764 9868950 0 -1
-0.331543 -0.051605199 -0.456543 9211022 0 -1
-0.329346 -0.051605199 -0.456543 9408401 0 -1
-0.32714799 -0.051605199 -0.456543 9211022 0 -1
-0.32421899 -0.051513702 -0.45556599 9474194 0 -1
-0.32226601 -0.051513702 -0.45556599 9079436 0 -1
-0.320068 -0.051513702 -0.45556599 9342606 0 -1
-0.317139 -0.051391602 -0.45458999 9670797 0 -1
-0.31494099 -0.051391602 -0.45458999 9671314 0 -1
-0.31298801 -0.051391602 -0.45458999 9671567 0 -1
-0.31079099 -0.051391602 -0.45458999 9408652 0 -1
-0.30859399 -0.051391602 -0.45458999 9539985 0 -1
-0.30590799 -0.051269501 -0.45361301 9539985 0 -1
-0.303711 -0.051269501 -0.45361301 9474192 0 -1
-0.301514 -0.051269501 -0.45361301 9474194 0 -1
-0.29931599 -0.051269501 -0.45361301 9539730 0 -1
-0.29736301 -0.051269501 -0.45361301 9473937 0 -1
-0.29516599 -0.051269501 -0.45361301 9539728 0 -1
-0.29247999 -0.051178001 -0.45263699 9474192 0 -1
-0.29028299 -0.051178001 -0.45263699 9408399 0 -1
-0.288086 -0.051178001 -0.45263699 9539985 0 -1
-0.285889 -0.051178001 -0.45263699 9342606 0 -1
-0.28320301 -0.051055901 -0.45166001 9408399 0 -1
-0.28100601 -0.051055901 -0.45166001 9539985 0 -1
-0.279053 -0.051055901 -0.45166001 9145227 0 -1
-0.27685499 -0.051055901 -0.45166001 9605778 0 -1
-0.27465799 -0.051055901 -0.45166001 9474192 0 -1
-0.27197301 -0.050933801 -0.45068401 9605521 0 -1
-0.269775 -0.050933801 -0.45068401 9868693 0 -1
-0.267822 -0.050933801 -0.45068401 9671314 0 -1
-0.265625 -0.050933801 -0.45068401 9868946 0 -1
-0.26293901 -0.050811801 -0.449707 9539728 0 -1
-0.26074201 -0.050811801 -0.449707 9867923 0 -1
-0.258789 -0.050811801 -0.449707 9802130 0 -1
-0.25610399 -0.0507202 -0.44872999 9802130 0 -1
-0.25390601 -0.0507202 -0.44872999 9867923 0 -1
-0.25170901 -0.0507202 -0.44872999 9671316 0 -1
-0.249146 -0.0505981 -0.44751 9737107 0 -1
-0.24707 -0.0505981 -0.44751 9737107 0 -1
-0.244995 -0.0505981 -0.44751 9671314 0 -1
-0.24231 -0.0504761 -0.44653299 9934486 0 -1
-0.240234 -0.0504761 -0.44653299 9802383 0 -1
-0.238159 -0.0504761 -0.44653299 9933203 0 -1
-0.236084 -0.0504761 -0.44653299 10064789 0 -1
-0.233887 -0.0504761 -0.44653299 9736077 0 -1
-0.231323 -0.050354 -0.445557 9998479 0 -1
-0.229248 -0.050354 -0.445557 9736077 0 -1
-0.227051 -0.050354 -0.445557 9867661 0 -1
-0.224976 -0.050354 -0.445557 9801868 0 -1
-0.2229 -0.050354 -0.445557 9801868 0 -1
-0.220337 -0.0502625 -0.44457999 9801868 0 -1
-0.218262 -0.0502625 -0.44457999 9801870 0 -1
-0.216187 -0.0502625 -0.44457999 9670797 0 -1
-0.214111 -0.0502625 -0.44457999 9868174 0 -1
-0.211914 -0.0502625 -0.44457999 10065553 0 -1
-0.209839 -0.0502625 -0.44457999 9934737 0 -1
-0.207764 -0.0502625 -0.44457999 9605774 0 -1
-0.2052 -0.050140399 -0.44360399 9671314 0 -1
-0.203125 -0.050140399 -0.44360399 9474188 0 -1
-0.20105 -0.050140399 -0.44360399 9539981 0 -1
-0.198975 -0.050140399 -0.44360399 9539981 0 -1
-0.196899 -0.050140399 -0.44360399 9539209 0 -1
-0.194336 -0.050018299 -0.44262701 9407623 0 -1
-0.192261 -0.050018299 -0.44262701 9736075 0 -1
-0.19018599 -0.050018299 -0.44262701 9670282 0 -1
-0.18810999 -0.050018299 -0.44262701 9079430 0 -1
-0.18603501 -0.050018299 -0.44262701 9013637 0 -1
-0.18396001 -0.050018299 -0.44262701 9211016 0 -1
-0.181885 -0.050018299 -0.44262701 8750465 0 -1
-0.17981 -0.050018299 -0.44262701 9079430 0 -1
-0.177246 -0.049926799 -0.44165 9079687 0 -1
-0.175171 -0.049926799 -0.44165 8750722 0 -1
-0.173096 -0.049926799 -0.44165 8816005 0 -1
-0.171021 -0.049926799 -0.44165 8947591 0 -1
-0.168945 -0.049926799 -0.44165 8816005 0 -1
-0.166504 -0.049804699 -0.44067401 8816005 0 -1
-0.16442899 -0.049804699 -0.44067401 8487040 0 -1
-0.16235401 -0.049804699 -0.44067401 8487040 0 -1
-0.16027801 -0.049804699 -0.44067401 8487297 0 -1
-0.15820301 -0.049804699 -0.44067401 8289918 0 -1
-0.155762 -0.049682599 -0.439697 8026748 0 -1
-0.153687 -0.049682599 -0.439697 7829369 0 -1
-0.151733 -0.049682599 -0.439697 7829369 0 -1
-0.14929201 -0.049560498 -0.43847701 7960953 0 -1
-0.14721701 -0.049560498 -0.43847701 7698551 0 -1
-0.145142 -0.049560498 -0.43847701 7960953 0 -1
-0.1427 -0.049469002 -0.4375 7697781 0 -1
-0.140747 -0.049469002 -0.4375 8027516 0 -1
-0.13867199 -0.049469002 -0.4375 7632758 0 -1
-0.13659699 -0.049469002 -0.4375 7566965 0 -1
-0.13452099 -0.049469002 -0.4375 7632758 0 -1
-0.13244601 -0.049469002 -0.4375 7632758 0 -1
-0.130371 -0.049469002 -0.4375 7435379 0 -1
-0.128296 -0.049469002 -0.4375 7238770 0 -1
-0.126343 -0.049469002 -0.4375 7238770 0 -1
-0.124268 -0.049469002 -0.4375 7172207 0 -1
-0.122192 -0.049469002 -0.4375 7238000 0 -1
-0.120117 -0.049469002 -0.4375 7238000 0 -1
-0.118103 -0.049469002 -0.4375 7369586 0 -1
-0.115784 -0.049346901 -0.43652299 7238000 0 -1
-0.113708 -0.049346901 -0.43652299 7172207 0 -1
-0.111633 -0.049346901 -0.43652299 7238000 0 -1
-0.109619 -0.049346901 -0.43652299 7238000 0 -1
-0.107544 -0.049346901 -0.43652299 7106414 0 -1
-0.105469 -0.049346901 -0.43652299 7105644 0 -1
-0.10321 -0.049224898 -0.43554699 7039851 0 -1
-0.101135 -0.049224898 -0.43554699 6908265 0 -1
-0.099121101 -0.049224898 -0.43554699 7039851 0 -1
-0.097045898 -0.049224898 -0.43554699 6842472 0 -1
-0.095031701 -0.049224898 -0.43554699 6908265 0 -1
-0.092956498 -0.049224898 -0.43554699 7105644 0 -1
-0.090881303 -0.049224898 -0.43554699 7039851 0 -1
-0.088867202 -0.049224898 -0.43554699 7105644 0 -1
-0.086792 -0.049224898 -0.43554699 6777449 0 -1
-0.084533699 -0.049133301 -0.43457001 6909037 0 -1
-0.082519501 -0.049133301 -0.43457001 6711656 0 -1
-0.080444299 -0.049133301 -0.43457001 6645863 0 -1
-0.078430198 -0.049133301 -0.43457001 6645863 0 -1
-0.076416001 -0.049133301 -0.43457001 6514277 0 -1
-0.074340798 -0.049133301 -0.43457001 6580070 0 -1
-0.072143599 -0.049011201 -0.43359399 6580070 0 -1
-0.070068397 -0.049011201 -0.43359399 6580070 0 -1
-0.068054199 -0.049011201 -0.43359399 6514277 0 -1
-0.066040002 -0.049011201 -0.43359399 6580070 0 -1
-0.063964799 -0.049011201 -0.43359399 6316898 0 -1
-0.061950698 -0.049011201 -0.43359399 6448484 0 -1
-0.059783898 -0.048889201 -0.43261701 6316898 0 -1
-0.057739299 -0.048889201 -0.43261701 6316900 0 -1
-0.055694599 -0.048889201 -0.43261701 6251107 0 -1
-0.053680401 -0.048889201 -0.43261701 6251107 0 -1
-0.051513702 -0.048767101 -0.43164101 6316898 0 -1
-0.049469002 -0.048767101 -0.43164101 6119519 0 -1
-0.0474548 -0.048767101 -0.43164101 6185312 0 -1
-0.045410201 -0.048767101 -0.43164101 6053726 0 -1
-0.043304399 -0.0486755 -0.430664 5856600 0 -1
-0.041259799 -0.0486755 -0.430664 5725014 0 -1
-0.039245602 -0.0486755 -0.430664 5527382 0 -1
-0.037231401 -0.0486755 -0.430664 5658968 0 -1
-0.035186801 -0.0486755 -0.430664 5593175 0 -1
-0.033081099 -0.0485535 -0.429443 5987933 0 -1
-0.0310822 -0.0485535 -0.429443 5987933 0 -1
-0.029052701 -0.0485535 -0.429443 5856347 0 -1
-0.0270386 -0.0485535 -0.429443 5856347 0 -1
-0.0250092 -0.0485535 -0.429443 5856347 0 -1
-0.022995001 -0.0485535 -0.429443 5725531 0 -1
-0.0209808 -0.0485535 -0.429443 5659738 0 -1
-0.018951399 -0.0485535 -0.429443 5725531 0 -1
-0.016937301 -0.0485535 -0.429443 5659738 0 -1
-0.0149155 -0.0485535 -0.429443 5725531 0 -1
-0.0128708 -0.0484314 -0.42846701 5857117 0 -1
-0.010849 -0.0484314 -0.42846701 6053726 0 -1
-0.0088348398 -0.0484314 -0.42846701 6053726 0 -1
-0.0068206801 -0.0484314 -0.42846701 6053728 0 -1
-0.00480652 -0.0484314 -0.42846701 5856349 0 -1
-0.00279236 -0.0484314 -0.42846701 6119521 0 -1
-0.00077676802 -0.0484314 -0.42846701 6053728 0 -1
0.00123501 -0.048339799 -0.42749 6053726 0 -1
0.0032463099 -0.048339799 -0.42749 6119772 0 -1
0.00525665 -0.048339799 -0.42749 6053726 0 -1
0.0072670002 -0.048339799 -0.42749 6185565 0 -1
0.0092544602 -0.0482178 -0.426514 5527635 0 -1
0.011261 -0.0482178 -0.426514 5330256 0 -1
0.0132675 -0.0482178 -0.426514 5856347 0 -1
0.015274 -0.0482178 -0.426514 6053726 0 -1
0.017272901 -0.0482178 -0.426514 6185312 0 -1
0.0192871 -0.0482178 -0.426514 6119519 0 -1
0.021286 -0.0482178 -0.426514 6119519 0 -1
0.023300201 -0.0482178 -0.426514 6053726 0 -1
0.0252991 -0.0482178 -0.426514 6054496 0 -1
0.027313201 -0.0482178 -0.426514 6054496 0 -1
0.0293121 -0.0482178 -0.426514 6120289 0 -1
0.031311002 -0.0482178 -0.426514 6186082 0 -1
0.033233602 -0.048095699 -0.42553699 6185312 0 -1
0.035247799 -0.048095699 -0.42553699 6448484 0 -1
0.037231401 -0.048095699 -0.42553699 6448484 0 -1
0.039245602 -0.048095699 -0.42553699 6316898 0 -1
0.041259799 -0.048095699 -0.42553699 6580840 0 -1
0.043243401 -0.048095699 -0.42553699 6317668 0 -1
0.045257598 -0.048095699 -0.42553699 6514277 0 -1
0.0472412 -0.048095699 -0.42553699 6514277 0 -1
0.049255401 -0.048095699 -0.42553699 6514277 0 -1
0.051116899 -0.047973599 -0.42456099 6580070 0 -1
0.0531311 -0.047973599 -0.42456099 6580323 0 -1
0.055114701 -0.047973599 -0.42456099 6776932 0 -1
0.057128899 -0.047973599 -0.42456099 6711139 0 -1
0.0591125 -0.047973599 -0.42456099 6711139 0 -1
0.061126702 -0.047973599 -0.42456099 6842725 0 -1
0.062927201 -0.047882099 -0.42358401 7040104 0 -1
0.064941399 -0.047882099 -0.42358401 7105897 0 -1
0.066955604 -0.047882099 -0.42358401 7369069 0 -1
0.068908699 -0.047882099 -0.42358401 7172460 0 -1
0.070922904 -0.047882099 -0.42358401 6645863 0 -1
0.072936997 -0.047882099 -0.42358401 6711656 0 -1
0.074890099 -0.047882099 -0.42358401 7040621 0 -1
0.076904297 -0.047882099 -0.42358401 7237483 0 -1
0.0788574 -0.047882099 -0.42358401 6909288 0 -1
0.080871597 -0.047882099 -0.42358401 7040874 0 -1
0.082885697 -0.047882099 -0.42358401 7566448 0 -1
0.084838897 -0.047882099 -0.42358401 7435379 0 -1
0.086852998 -0.047882099 -0.42358401 7566965 0 -1
0.088623002 -0.047759999 -0.422607 7633011 0 -1
0.0906372 -0.047759999 -0.422607 7501942 0 -1
0.092590302 -0.047759999 -0.422607 6844012 0 -1
0.0946045 -0.047759999 -0.422607 7172207 0 -1
0.096557602 -0.047759999 -0.422607 6974828 0 -1
0.098327599 -0.047637898 -0.42163101 6974828 0 -1
0.100342 -0.047637898 -0.42163101 7105644 0 -1
0.102295 -0.047637898 -0.42163101 7105644 0 -1
0.104309 -0.047637898 -0.42163101 7237230 0 -1
0.106262 -0.047637898 -0.42163101 7368816 0 -1
0.108276 -0.047637898 -0.42163101 7105897 0 -1
0.110229 -0.047637898 -0.42163101 7171690 0 -1
0.112244 -0.047637898 -0.42163101 7303023 0 -1
0.114197 -0.047637898 -0.42163101 7500402 0 -1
0.116211 -0.047637898 -0.42163101 7171437 0 -1
0.118164 -0.047637898 -0.42163101 7368816 0 -1
0.120117 -0.047637898 -0.42163101 7106414 0 -1
0.122131 -0.047637898 -0.42163101 7238000 0 -1
0.124084 -0.047637898 -0.42163101 7172207 0 -1
0.12609901 -0.047637898 -0.42163101 7238000 0 -1
0.128052 -0.047637898 -0.42163101 7238000 0 -1
0.129761 -0.047546402 -0.42041001 7369586 0 -1
0.131714 -0.047546402 -0.42041001 7238253 0 -1
0.13366701 -0.047546402 -0.42041001 7238253 0 -1
0.13562 -0.047546402 -0.42041001 7435632 0 -1
0.137573 -0.047546402 -0.42041001 7435632 0 -1
0.13964801 -0.047546402 -0.42041001 7501425 0 -1
0.14123499 -0.047424302 -0.41943401 7238253 0 -1
0.143188 -0.047424302 -0.41943401 7238253 0 -1
0.145142 -0.047424302 -0.41943401 7435632 0 -1
0.14721701 -0.047424302 -0.41943401 7501425 0 -1
0.14880399 -0.047302201 -0.418457 7567218 0 -1
0.150757 -0.047302201 -0.418457 7829618 0 -1
0.15271001 -0.047302201 -0.418457 7632239 0 -1
0.154663 -0.047302201 -0.418457 7698032 0 -1
0.156616 -0.047302201 -0.418457 7763825 0 -1
0.15820301 -0.047180202 -0.41747999 8092790 0 -1
0.160156 -0.047180202 -0.41747999 8158583 0 -1
0.162231 -0.047180202 -0.41747999 7961204 0 -1
0.164185 -0.047180202 -0.41747999 8224119 0 -1
0.16613799 -0.047180202 -0.41747999 8158583 0 -1
0.168091 -0.047180202 -0.41747999 7896181 0 -1
0.170044 -0.047180202 -0.41747999 7896181 0 -1
0.172363 -0.047302201 -0.418457 7698802 0 -1
0.174316 -0.047302201 -0.418457 7961206 0 -1
0.176392 -0.047302201 -0.418457 7829618 0 -1
0.17834499 -0.047302201 -0.418457 7566446 0 -1
0.180298 -0.047302201 -0.418457 7698032 0 -1
0.18176299 -0.047180202 -0.41747999 7829618 0 -1
0.183716 -0.047180202 -0.41747999 7698032 0 -1
0.185791 -0.047180202 -0.41747999 7961204 0 -1
0.18774401 -0.047180202 -0.41747999 7633011 0 -1
0.189697 -0.047180202 -0.41747999 7698032 0 -1
0.19165 -0.047180202 -0.41747999 7368810 0 -1
0.19360401 -0.047180202 -0.41747999 7566189 0 -1
0.195557 -0.047180202 -0.41747999 7631982 0 -1
0.19751 -0.047180202 -0.41747999 7763568 0 -1
0.19946299 -0.047180202 -0.41747999 7697775 0 -1
0.201416 -0.047180202 -0.41747999 7368810 0 -1
0.20336901 -0.047180202 -0.41747999 7237226 0 -1
0.204834 -0.047088601 -0.416504 7369069 0 -1
0.20678701 -0.047088601 -0.416504 7435632 0 -1
0.20886201 -0.047088601 -0.416504 7171690 0 -1
0.210815 -0.047088601 -0.416504 7631984 0 -1
0.212769 -0.047088601 -0.416504 7500402 0 -1
0.21472199 -0.047088601 -0.416504 7435632 0 -1
0.216675 -0.047088601 -0.416504 7238253 0 -1
0.218628 -0.047088601 -0.416504 7633011 0 -1
0.220581 -0.047088601 -0.416504 7697777 0 -1
0.222534 -0.047088601 -0.416504 7763570 0 -1
0.22448701 -0.047088601 -0.416504 7829620 0 -1
0.22583 -0.046966601 -0.41552699 7698804 0 -1
0.22778299 -0.046966601 -0.41552699 7435632 0 -1
0.229736 -0.046966601 -0.41552699 7368816 0 -1
0.231812 -0.046966601 -0.41552699 7303023 0 -1
0.23376501 -0.046966601 -0.41552699 7236973 0 -1
0.235718 -0.046966601 -0.41552699 7237226 0 -1
0.237671 -0.046966601 -0.41552699 7171690 0 -1
0.23962399 -0.046966601 -0.41552699 6908267 0 -1
0.241577 -0.046966601 -0.41552699 7040623 0 -1
0.24353001 -0.046966601 -0.41552699 7105646 0 -1
0.245483 -0.046966601 -0.41552699 7105389 0 -1
0.24682599 -0.046844501 -0.41455099 7434352 0 -1
0.248779 -0.046844501 -0.41455099 7105646 0 -1
0.250732 -0.046844501 -0.41455099 7172209 0 -1
0.25268599 -0.046844501 -0.41455099 7040623 0 -1
0.254639 -0.046844501 -0.41455099 7107186 0 -1
0.25659201 -0.046844501 -0.41455099 7370871 0 -1
0.25854501 -0.046844501 -0.41455099 6975600 0 -1
0.260254 -0.046844501 -0.41455099 7501174 0 -1
0.262207 -0.046844501 -0.41455099 7369588 0 -1
0.26416001 -0.046844501 -0.41455099 7631988 0 -1
0.26611301 -0.046844501 -0.41455099 7370356 0 -1
0.26806599 -0.046844501 -0.41455099 7238770 0 -1
0.27002001 -0.046844501 -0.41455099 6910058 0 -1
0.27197301 -0.046844501 -0.41455099 6844265 0 -1
0.27392599 -0.046844501 -0.41455099 6844265 0 -1
0.275879 -0.046844501 -0.41455099 6844265 0 -1
0.277832 -0.046844501 -0.41455099 6844265 0 -1
0.27978501 -0.046844501 -0.41455099 6844265 0 -1
0.28173801 -0.046844501 -0.41455099 6844265 0 -1
0.28369099 -0.046844501 -0.41455099 6844265 0 -1
0.28564501 -0.046844501 -0.41455099 6844265 0 -1
0.28759801 -0.046844501 -0.41455099 6844265 0 -1
0.288818 -0.0467529 -0.41357401 6844265 0 -1
0.29077101 -0.0467529 -0.41357401 6844265 0 -1
0.292725 -0.0467529 -0.41357401 6844265 0 -1
0.294678 -0.0467529 -0.41357401 6844265 0 -1
0.29663101 -0.0467529 -0.41357401 6844265 0 -1
0.29858401 -0.0467529 -0.41357401 6844265 0 -1
0.30053699 -0.0467529 -0.41357401 6844265 0 -1
0.30249 -0.0467529 -0.41357401 6844265 0 -1
0.304443 -0.0467529 -0.41357401 6844265 0 -1
0.30639601 -0.0467529 -0.41357401 6844265 0 -1
0.30835 -0.0467529 -0.41357401 6844265 0 -1
0.310303 -0.0467529 -0.41357401 6844265 0 -1
0.31225601 -0.0467529 -0.41357401 6844265 0 -1
0.31420901 -0.0467529 -0.41357401 6844265 0 -1
0.31616199 -0.0467529 -0.41357401 6844265 0 -1
0.318115 -0.0467529 -0.41357401 6844265 0 -1
0.320068 -0.0467529 -0.41357401 6844265 0 -1
0.32202101 -0.0467529 -0.41357401 6844265 0 -1
0.32324201 -0.0466309 -0.41259801 6844265 0 -1
0.32519501 -0.0466309 -0.41259801 6844265 0 -1
0.326904 -0.0466309 -0.41259801 6844265 0 -1
0.328857 -0.0466309 -0.41259801 6844265 0 -1
0.33081099 -0.0466309 -0.41259801 6844265 0 -1
0.332764 -0.0466309 -0.41259801 6844265 0 -1
0.33471701 -0.0466309 -0.41259801 6844265 0 -1
0.33667001 -0.0466309 -0.41259801 6844265 0 -1
0.33862299 -0.0466309 -0.41259801 6844265 0 -1
0.34057599 -0.0466309 -0.41259801 6844265 0 -1
0.342529 -0.0466309 -0.41259801 7041642 0 -1
0.34375 -0.0465088 -0.41137701 7041642 0 -1
0.34545901 -0.0465088 -0.41137701 7041642 0 -1
0.34741199 -0.0465088 -0.41137701 7041642 0 -1
0.349365 -0.0465088 -0.41137701 7041642 0 -1
0.351318 -0.0465088 -0.41137701 7041642 0 -1
0.35327101 -0.0465088 -0.41137701 7041642 0 -1
0.355225 -0.0465088 -0.41137701 7041642 0 -1
0.357178 -0.0465088 -0.41137701 7041642 0 -1
0.358154 -0.0463867 -0.4104 7041642 0 -1
0.360107 -0.0463867 -0.4104 7041642 0 -1
0.36206099 -0.0463867 -0.4104 7041642 0 -1
0.364014 -0.0463867 -0.4104 7041642 0 -1
0.36596701 -0.0463867 -0.4104 7041642 0 -1
0.36792001 -0.0463867 -0.4104 7041642 0 -1
0.36987299 -0.0463867 -0.4104 7041642 0 -1
0.37182599 -0.0463867 -0.4104 7041642 0 -1
0.373779 -0.0463867 -0.4104 7041642 0 -1
0.375732 -0.0463867 -0.4104 7041642 0 -1
0.37744099 -0.0463867 -0.4104 7041642 0 -1
0.37939501 -0.0463867 -0.4104 7041642 0 -1
0.38134801 -0.0463867 -0.4104 7041642 0 -1
0.38330099 -0.0463867 -0.4104 7041642 0 -1
0.385254 -0.0463867 -0.4104 7041642 0 -1
0.387207 -0.0463867 -0.4104 7041642 0 -1
0.38916001 -0.0463867 -0.4104 7041642 0 -1
0.39013699 -0.0462952 -0.40942401 7041642 0 -1
0.39208999 -0.0462952 -0.40942401 7041642 0 -1
0.394043 -0.0462952 -0.40942401 7041642 0 -1
0.395996 -0.0462952 -0.40942401 7041642 0 -1
0.39770499 -0.0462952 -0.40942401 7041642 0 -1
0.400635 -0.0463867 -0.4104 7041642 0 -1
0.40258801 -0.0463867 -0.4104 7041642 0 -1
0.40454099 -0.0463867 -0.4104 7041642 0 -1
0.40649399 -0.0463867 -0.4104 7041642 0 -1
-0.33642599 -0.053893998 -0.457764 9867412 0 -1
-0.33447301 -0.053893998 -0.457764 9145227 0 -1
-0.331543 -0.053771999 -0.456543 9080204 0 -1
-0.329346 -0.053771999 -0.456543 9409169 0 -1
-0.32714799 -0.053771999 -0.456543 9802383 0 -1
-0.32421899 -0.053649899 -0.45556599 9606031 0 -1
-0.32226601 -0.053649899 -0.45556599 9539981 0 -1
-0.319336 -0.053527799 -0.45458999 9540238 0 -1
-0.317139 -0.053527799 -0.45458999 9606031 0 -1
-0.31494099 -0.053527799 -0.45458999 9803410 0 -1
-0.31298801 -0.053527799 -0.45458999 9539728 0 -1
-0.31079099 -0.053527799 -0.45458999 9737107 0 -1
-0.307861 -0.053405799 -0.45361301 9539728 0 -1
-0.30590799 -0.053405799 -0.45361301 9671567 0 -1
-0.303711 -0.053405799 -0.45361301 9474445 0 -1
-0.301514 -0.053405799 -0.45361301 9211273 0 -1
-0.29931599 -0.053405799 -0.45361301 9408395 0 -1
-0.29736301 -0.053405799 -0.45361301 9408395 0 -1
-0.29443401 -0.053283699 -0.45263699 9210763 0 -1
-0.29247999 -0.053283699 -0.45263699 9408399 0 -1
-0.29028299 -0.053283699 -0.45263699 9539985 0 -1
-0.288086 -0.053283699 -0.45263699 9343376 0 -1
-0.2854 -0.053161599 -0.45166001 9211020 0 -1
-0.28320301 -0.053161599 -0.45166001 9079177 0 -1
-0.28100601 -0.053161599 -0.45166001 9210763 0 -1
-0.279053 -0.053161599 -0.45166001 9408399 0 -1
-0.27685499 -0.053161599 -0.45166001 9736590 0 -1
-0.27417001 -0.053070098 -0.45068401 9801870 0 -1
-0.27197301 -0.053070098 -0.45068401 9605521 0 -1
-0.269775 -0.053070098 -0.45068401 9605521 0 -1
-0.267822 -0.053070098 -0.45068401 9604751 0 -1
-0.26513699 -0.052948002 -0.449707 9408142 0 -1
-0.26293901 -0.052948002 -0.449707 9473935 0 -1
-0.26074201 -0.052948002 -0.449707 9473937 0 -1
-0.258057 -0.052825902 -0.44872999 9605523 0 -1
-0.25610399 -0.052825902 -0.44872999 9671316 0 -1
-0.25390601 -0.052825902 -0.44872999 9867923 0 -1
-0.251221 -0.052703898 -0.44751 9736337 0 -1
-0.249146 -0.052703898 -0.44751 9736337 0 -1
-0.24707 -0.052703898 -0.44751 9539728 0 -1
-0.244385 -0.052581798 -0.44653299 9408142 0 -1
-0.24231 -0.052581798 -0.44653299 9539981 0 -1
-0.240234 -0.052581798 -0.44653299 9539981 0 -1
-0.238159 -0.052581798 -0.44653299 9670797 0 -1
-0.23547401 -0.052459698 -0.445557 9736077 0 -1
-0.23339801 -0.052459698 -0.445557 9933456 0 -1
-0.231323 -0.052459698 -0.445557 10196628 0 -1
-0.229248 -0.052459698 -0.445557 10196626 0 -1
-0.227051 -0.052459698 -0.445557 9933454 0 -1
-0.224976 -0.052459698 -0.445557 9670282 0 -1
-0.22241201 -0.052337602 -0.44457999 9867661 0 -1
-0.220337 -0.052337602 -0.44457999 9867661 0 -1
-0.218262 -0.052337602 -0.44457999 10130833 0 -1
-0.216187 -0.052337602 -0.44457999 9736075 0 -1
-0.214111 -0.052337602 -0.44457999 9670282 0 -1
-0.211914 -0.052337602 -0.44457999 9670282 0 -1
-0.209839 -0.052337602 -0.44457999 9736077 0 -1
-0.207275 -0.052215599 -0.44360399 9605774 0 -1
-0.2052 -0.052215599 -0.44360399 9539981 0 -1
-0.203125 -0.052215599 -0.44360399 9474188 0 -1
-0.20105 -0.052215599 -0.44360399 9276809 0 -1
-0.198975 -0.052215599 -0.44360399 9408395 0 -1
-0.196411 -0.052124001 -0.44262701 9342859 0 -1
-0.194336 -0.052124001 -0.44262701 9474443 0 -1
-0.192261 -0.052124001 -0.44262701 9211014 0 -1
-0.19018599 -0.052124001 -0.44262701 9276807 0 -1
-0.18810999 -0.052124001 -0.44262701 9276807 0 -1
-0.18603501 -0.052124001 -0.44262701 9145223 0 -1
-0.18396001 -0.052124001 -0.44262701 9079687 0 -1
-0.18139599 -0.052002002 -0.44165 8947842 0 -1
-0.17932101 -0.052002002 -0.44165 9079428 0 -1
-0.177246 -0.052002002 -0.44165 9145480 0 -1
-0.175171 -0.052002002 -0.44165 8882308 0 -1
-0.173096 -0.052002002 -0.44165 9079430 0 -1
-0.171021 -0.052002002 -0.44165 8816258 0 -1
-0.168579 -0.051879901 -0.44067401 8947844 0 -1
-0.166504 -0.051879901 -0.44067401 8684672 0 -1
-0.16442899 -0.051879901 -0.44067401 8355707 0 -1
-0.16235401 -0.051879901 -0.44067401 8750465 0 -1
-0.16027801 -0.051879901 -0.44067401 8618879 0 -1
-0.157837 -0.051757801 -0.439697 8553090 0 -1
-0.155762 -0.051757801 -0.439697 8224125 0 -1
-0.153687 -0.051757801 -0.439697 7829367 0 -1
-0.151733 -0.051757801 -0.439697 7763574 0 -1
-0.14929201 -0.051635701 -0.43847701 7697781 0 -1
-0.14721701 -0.051635701 -0.43847701 7960953 0 -1
-0.145142 -0.051635701 -0.43847701 7697781 0 -1
-0.1427 -0.051513702 -0.4375 7763574 0 -1
-0.140747 -0.051513702 -0.4375 7632758 0 -1
-0.13867199 -0.051513702 -0.4375 7697781 0 -1
-0.13659699 -0.051513702 -0.4375 7631988 0 -1
-0.13452099 -0.051513702 -0.4375 7566195 0 -1
-0.13244601 -0.051513702 -0.4375 7302766 0 -1
-0.130371 -0.051513702 -0.4375 7368559 0 -1
-0.128296 -0.051513702 -0.4375 7238000 0 -1
-0.126343 -0.051513702 -0.4375 7435379 0 -1
-0.124268 -0.051513702 -0.4375 7501172 0 -1
-0.122192 -0.051513702 -0.4375 7238772 0 -1
-0.120117 -0.051513702 -0.4375 7107184 0 -1
-0.117798 -0.051391602 -0.43652299 7172207 0 -1
-0.115784 -0.051391602 -0.43652299 7106414 0 -1
-0.113708 -0.051391602 -0.43652299 7238000 0 -1
-0.111633 -0.051391602 -0.43652299 7238000 0 -1
-0.109619 -0.051391602 -0.43652299 7172207 0 -1
-0.107544 -0.051391602 -0.43652299 7106414 0 -1
-0.105225 -0.051269501 -0.43554699 7106414 0 -1
-0.10321 -0.051269501 -0.43554699 7106414 0 -1
-0.101135 -0.051269501 -0.43554699 7172207 0 -1
-0.099121101 -0.051269501 -0.43554699 6776681 0 -1
-0.097045898 -0.051269501 -0.43554699 6842472 0 -1
-0.095031701 -0.051269501 -0.43554699 6974828 0 -1
-0.092956498 -0.051269501 -0.43554699 7106414 0 -1
-0.090881303 -0.051269501 -0.43554699 6778221 0 -1
-0.088867202 -0.051269501 -0.43554699 6646635 0 -1
-0.086608902 -0.051178001 -0.43457001 6844014 0 -1
-0.084533699 -0.051178001 -0.43457001 6778221 0 -1
-0.082519501 -0.051178001 -0.43457001 6844012 0 -1
-0.080444299 -0.051178001 -0.43457001 6778219 0 -1
-0.078430198 -0.051178001 -0.43457001 6844012 0 -1
-0.076232903 -0.051055901 -0.43359399 6778219 0 -1
-0.0741577 -0.051055901 -0.43359399 6580840 0 -1
-0.072143599 -0.051055901 -0.43359399 6646635 0 -1
-0.070068397 -0.051055901 -0.43359399 6646635 0 -1
-0.068054199 -0.051055901 -0.43359399 6778221 0 -1
-0.066040002 -0.051055901 -0.43359399 6844014 0 -1
-0.063964799 -0.051055901 -0.43359399 6580842 0 -1
-0.061798099 -0.050933801 -0.43261701 6580842 0 -1
-0.059783898 -0.050933801 -0.43261701 6580842 0 -1
-0.057739299 -0.050933801 -0.43261701 6580842 0 -1
-0.055694599 -0.050933801 -0.43261701 6383463 0 -1
-0.053558301 -0.050811801 -0.43164101 6383463 0 -1
-0.051513702 -0.050811801 -0.43164101 6317670 0 -1
-0.049469002 -0.050811801 -0.43164101 6317670 0 -1
-0.0474548 -0.050811801 -0.43164101 6186084 0 -1
-0.0453186 -0.050689701 -0.430664 6186082 0 -1
-0.043304399 -0.050689701 -0.430664 6054496 0 -1
-0.041259799 -0.050689701 -0.430664 5988703 0 -1
-0.039245602 -0.050689701 -0.430664 5988703 0 -1
-0.037231401 -0.050689701 -0.430664 6055009 0 -1
-0.035125699 -0.050567601 -0.429443 5857630 0 -1
-0.033081099 -0.050567601 -0.429443 5988703 0 -1
-0.0310822 -0.050567601 -0.429443 5659738 0 -1
-0.029052701 -0.050567601 -0.429443 5725531 0 -1
-0.0270386 -0.050567601 -0.429443 5725531 0 -1
-0.0250092 -0.050567601 -0.429443 5922910 0 -1
-0.022995001 -0.050567601 -0.429443 5988703 0 -1
-0.0209808 -0.050567601 -0.429443 6054496 0 -1
-0.018951399 -0.050567601 -0.429443 6119519 0 -1
-0.0168915 -0.050445601 -0.42846701 6645863 0 -1
-0.0148849 -0.050445601 -0.42846701 6778219 0 -1
-0.0128708 -0.050445601 -0.42846701 6580842 0 -1
-0.010849 -0.050445601 -0.42846701 6449256 0 -1
-0.0088348398 -0.050445601 -0.42846701 6383463 0 -1
-0.0068206801 -0.050445601 -0.42846701 6317670 0 -1
-0.00480652 -0.050445601 -0.42846701 6383463 0 -1
-0.00279236 -0.050445601 -0.42846701 6317670 0 -1
-0.00077485997 -0.050323501 -0.42749 6186084 0 -1
0.00123501 -0.050323501 -0.42749 6120291 0 -1
0.0032463099 -0.050323501 -0.42749 5988705 0 -1
0.00525665 -0.050323501 -0.42749 5922912 0 -1
0.0072479201 -0.0502319 -0.426514 5922912 0 -1
0.0092544602 -0.0502319 -0.426514 6054498 0 -1
0.011261 -0.0502319 -0.426514 5922910 0 -1
0.0132675 -0.0502319 -0.426514 5987933 0 -1
0.015274 -0.0502319 -0.426514 6053726 0 -1
0.017272901 -0.0502319 -0.426514 5987935 0 -1
0.0192871 -0.0502319 -0.426514 5395798 0 -1
0.021286 -0.0502319 -0.426514 5856347 0 -1
0.023300201 -0.0502319 -0.426514 6119519 0 -1
0.0252991 -0.0502319 -0.426514 5988703 0 -1
0.027313201 -0.0502319 -0.426514 5988703 0 -1
0.0293121 -0.0502319 -0.426514 6251105 0 -1
0.031311002 -0.0502319 -0.426514 6251105 0 -1
0.033233602 -0.050109901 -0.42553699 6251105 0 -1
0.035247799 -0.050109901 -0.42553699 6054496 0 -1
0.037231401 -0.050109901 -0.42553699 6317668 0 -1
0.039245602 -0.050109901 -0.42553699 6120289 0 -1
0.041259799 -0.050109901 -0.42553699 6383461 0 -1
0.043243401 -0.050109901 -0.42553699 6448737 0 -1
0.045257598 -0.050109901 -0.42553699 6514530 0 -1
0.0472412 -0.050109901 -0.42553699 6514530 0 -1
0.049255401 -0.050109901 -0.42553699 6580323 0 -1
0.051238999 -0.050109901 -0.42553699 6580323 0 -1
0.0531311 -0.0499878 -0.42456099 6777702 0 -1
0.055114701 -0.0499878 -0.42456099 6777702 0 -1
0.057128899 -0.0499878 -0.42456099 6777702 0 -1
0.0591125 -0.0499878 -0.42456099 6777702 0 -1
0.061126702 -0.0499878 -0.42456099 6909288 0 -1
0.062927201 -0.0498657 -0.42358401 6909288 0 -1
0.064941399 -0.0498657 -0.42358401 6646116 0 -1
0.066955604 -0.0498657 -0.42358401 6777702 0 -1
0.068908699 -0.0498657 -0.42358401 6909288 0 -1
0.070922904 -0.0498657 -0.42358401 6711656 0 -1
0.072936997 -0.0498657 -0.42358401 6777449 0 -1
0.074890099 -0.0498657 -0.42358401 6974828 0 -1
0.076904297 -0.0498657 -0.42358401 7039851 0 -1
0.0788574 -0.0498657 -0.42358401 7040621 0 -1
0.080871597 -0.0498657 -0.42358401 6974828 0 -1
0.082885697 -0.0498657 -0.42358401 6909035 0 -1
0.084838897 -0.0498657 -0.42358401 6580070 0 -1
0.0866699 -0.049743701 -0.422607 6908518 0 -1
0.088623002 -0.049743701 -0.422607 7171433 0 -1
0.0906372 -0.049743701 -0.422607 7237483 0 -1
0.092590302 -0.049743701 -0.422607 7105897 0 -1
0.0946045 -0.049743701 -0.422607 7237483 0 -1
0.096374497 -0.049621601 -0.42163101 7171690 0 -1
0.098327599 -0.049621601 -0.42163101 7105897 0 -1
0.100342 -0.049621601 -0.42163101 6908265 0 -1
0.102295 -0.049621601 -0.42163101 7105644 0 -1
0.104309 -0.049621601 -0.42163101 7500655 0 -1
0.106262 -0.049621601 -0.42163101 7369069 0 -1
0.107971 -0.049499501 -0.42041001 7369839 0 -1
