ply
format ascii 1.0
element vertex 1831
property float x
property float y
property float z
property uchar red
property uchar green
property uchar blue
end_header
-70 -126 512 179 176 184
-68 -126 512 178 175 183
-67 -126 512 179 176 185
-65 -127 513 179 175 188
-64 -127 514 181 178 188
-62 -127 514 181 178 188
-61 -127 516 182 179 189
-59 -127 515 182 179 188
-57 -127 516 181 178 186
-56 -128 517 182 179 187
-54 -128 518 183 180 188
-52 -128 517 184 181 191
-50 -127 516 183 180 190
-49 -127 515 184 181 189
-47 -127 516 183 180 188
-45 -127 516 184 181 189
-44 -127 516 185 182 190
-42 -127 516 185 182 190
-40 -128 518 186 183 191
-39 -128 518 188 184 192
-37 -128 518 187 184 192
-35 -128 517 187 184 192
-33 -128 517 186 183 191
-32 -128 517 184 183 191
-30 -127 516 184 183 191
-28 -127 515 182 184 191
-26 -127 513 182 183 191
-25 -127 513 184 183 193
-23 -127 513 184 183 193
-21 -126 512 185 184 194
-20 -127 513 184 183 193
-18 -127 514 186 185 195
-16 -127 516 185 184 194
-15 -128 517 185 184 194
-13 -128 517 186 185 196
-11 -128 517 185 184 196
-10 -128 518 187 186 196
-8 -128 518 187 186 196
-6 -128 518 186 185 195
-5 -128 517 188 187 197
-3 -127 516 190 189 199
-1 -127 515 190 189 199
1 -127 514 190 189 199
2 -127 516 192 191 201
4 -128 517 193 192 202
6 -128 517 193 192 202
7 -127 516 193 192 202
9 -127 515 193 192 202
11 -127 514 191 190 200
12 -126 512 190 189 199
14 -125 508 190 189 200
16 -125 507 190 189 200
17 -125 506 190 189 199
19 -125 507 190 189 199
21 -125 506 190 189 199
22 -125 506 192 191 199
24 -125 508 193 192 200
26 -126 510 193 192 199
28 -126 512 191 190 198
29 -126 511 191 190 198
31 -126 511 191 190 198
33 -126 512 190 189 197
34 -126 511 190 189 198
36 -126 511 191 190 200
37 -125 508 191 190 200
39 -125 508 192 191 201
41 -126 509 192 191 201
43 -126 510 192 191 199
44 -126 510 193 192 200
46 -126 509 193 192 200
47 -126 509 194 193 201
49 -126 509 193 192 200
51 -125 508 193 192 200
52 -125 508 193 192 200
54 -125 506 193 192 200
55 -125 506 193 192 200
57 -125 506 193 192 200
59 -125 506 193 192 200
60 -125 505 192 191 199
62 -125 506 192 191 199
64 -125 507 192 191 199
66 -125 508 192 191 199
67 -125 508 192 191 200
69 -125 507 193 192 202
70 -125 505 192 191 201
72 -124 504 192 191 201
74 -124 505 191 190 200
75 -124 505 192 191 201
77 -125 506 192 191 201
79 -125 506 192 191 201
81 -125 507 192 191 201
82 -125 506 192 191 199
84 -124 505 194 193 201
85 -125 506 195 194 202
87 -125 506 194 193 201
89 -125 506 194 193 201
90 -125 506 195 194 202
92 -124 505 195 194 202
93 -124 502 196 195 203
94 -123 499 198 195 203
96 -123 500 197 194 202
97 -123 499 195 194 202
99 -123 499 195 194 202
100 -123 499 195 194 202
102 -123 499 195 194 202
103 -123 498 195 194 202
105 -123 498 195 194 202
107 -123 498 196 195 203
108 -122 497 196 195 203
110 -122 497 196 195 203
111 -122 497 197 196 204
113 -122 498 196 195 203
115 -122 498 197 196 204
116 -122 498 197 196 204
118 -122 497 197 196 204
120 -122 498 197 196 204
121 -122 496 197 196 204
122 -122 496 197 196 204
124 -121 494 196 195 203
125 -121 493 196 195 203
126 -121 492 196 195 203
128 -121 492 196 195 203
130 -121 493 196 195 203
132 -121 494 196 195 203
133 -121 494 196 195 203
135 -121 495 196 195 203
137 -122 496 198 195 203
139 -122 497 198 195 203
141 -122 498 198 195 203
142 -122 498 198 195 203
143 -122 496 199 196 204
144 -121 494 198 195 203
146 -121 494 199 196 204
148 -121 495 199 196 203
149 -121 495 199 196 203
151 -121 495 199 196 203
153 -122 496 199 196 203
154 -121 493 200 197 204
155 -121 492 200 197 205
156 -121 492 200 197 205
158 -121 492 201 198 206
160 -120 492 200 197 205
161 -120 490 201 196 204
162 -120 490 201 196 204
164 -120 490 201 196 204
166 -120 491 202 197 204
167 -120 490 201 197 203
168 -120 490 201 196 204
171 -120 492 201 196 204
172 -120 491 201 196 204
173 -120 491 201 196 204
174 -120 489 201 196 204
176 -120 489 201 196 204
177 -120 489 200 196 203
179 -119 488 199 195 200
180 -119 487 199 194 202
181 -119 487 199 195 202
182 -118 485 199 196 203
183 -118 484 199 196 203
185 -118 483 198 195 202
186 -118 483 199 196 203
187 -118 482 197 196 203
189 -118 483 196 195 201
191 -118 483 198 195 200
192 -118 483 199 196 201
194 -118 483 199 196 201
195 -118 482 201 197 202
197 -118 483 200 196 201
198 -117 481 201 197 202
199 -117 481 202 198 203
201 -117 482 201 197 202
201 -117 479 201 197 202
202 -116 478 201 197 202
204 -116 477 201 197 202
205 -116 477 200 196 201
207 -116 478 200 196 201
209 -117 479 200 196 201
210 -116 478 200 196 201
212 -117 479 200 196 201
213 -116 478 200 196 201
214 -116 476 200 196 201
215 -116 476 200 196 201
217 -116 477 200 196 201
219 -116 478 200 196 201
221 -116 479 201 197 202
223 -116 477 201 198 202
227 -116 476 201 197 200
230 -116 478 201 197 200
233 -114 470 204 198 199
235 -114 471 203 197 198
237 -114 471 203 197 198
278 -116 478 203 194 194
-319 -122 512 127 117 115
-318 -122 514 128 118 116
-315 -122 512 127 117 115
-315 -122 513 129 119 117
-312 -122 512 131 121 119
-311 -122 512 118 109 107
-310 -122 513 103 95 93
-306 -121 510 104 96 94
-304 -121 508 107 99 99
-302 -121 508 112 105 104
-302 -122 510 114 108 107
-302 -122 513 114 106 106
-301 -123 515 110 102 100
-300 -123 516 107 99 98
-300 -124 519 114 106 106
-300 -124 521 129 121 121
-301 -125 525 114 106 106
-301 -126 528 111 103 103
-299 -126 528 112 104 106
-296 -126 526 112 104 104
-294 -125 525 110 102 102
-292 -125 525 110 102 102
-290 -125 524 111 103 103
-289 -125 525 118 110 110
-288 -126 526 115 107 107
-286 -125 525 111 103 103
-285 -126 526 114 105 107
-283 -126 526 118 108 110
-281 -126 526 121 111 113
-280 -126 526 116 108 110
-278 -126 525 117 109 111
-276 -126 525 117 109 111
-274 -126 525 119 111 113
-273 -126 526 120 112 114
-272 -126 527 121 113 115
-270 -126 527 120 114 115
-268 -126 526 120 114 115
-266 -126 525 121 115 116
-265 -126 526 126 120 121
-263 -126 526 128 121 123
-262 -126 527 126 118 122
-260 -126 527 124 116 120
-258 -126 526 125 117 121
-257 -126 526 125 117 121
-254 -126 525 126 118 122
-252 -126 524 127 119 123
-251 -126 525 129 121 125
-249 -126 525 125 117 121
-247 -126 524 128 120 124
-245 -125 523 128 120 124
-244 -125 523 140 132 137
-242 -125 523 163 158 166
-241 -126 524 166 161 169
-239 -126 524 136 131 139
-237 -126 524 162 157 165
-236 -126 524 163 158 166
-233 -125 522 163 158 166
-232 -125 522 163 158 166
-230 -125 522 162 158 166
-228 -125 522 163 160 167
-226 -125 521 164 161 168
-223 -125 518 164 161 168
-221 -124 516 165 162 169
-219 -124 516 164 161 168
-218 -124 517 164 161 169
-217 -125 519 164 161 169
-215 -125 519 165 162 170
-214 -125 520 165 162 169
-213 -125 521 166 163 170
-212 -126 522 168 163 171
-210 -126 522 168 163 171
-208 -125 521 168 163 171
-206 -125 520 168 163 171
-205 -126 522 168 163 171
-204 -126 523 167 163 171
-202 -126 523 168 165 173
-200 -126 522 169 164 173
-198 -126 522 170 165 174
-197 -126 522 170 165 174
-195 -126 522 171 165 174
-194 -126 523 173 166 174
-192 -126 522 173 167 175
-190 -126 522 172 167 175
-188 -126 522 171 166 174
-187 -126 523 174 169 177
-185 -126 522 175 170 178
-183 -125 520 175 170 178
-180 -125 518 176 171 179
-178 -125 516 176 171 179
-177 -125 517 177 172 180
-175 -125 516 177 172 179
-173 -124 515 176 172 177
-171 -124 514 176 172 177
-169 -124 514 175 171 176
-167 -124 513 176 172 177
-165 -124 512 175 170 178
-164 -124 513 175 170 178
-162 -124 513 174 169 177
-161 -124 514 174 170 178
-159 -124 513 173 170 178
-157 -124 513 173 170 178
-156 -124 514 172 169 177
-154 -124 514 172 169 177
-153 -125 515 172 169 177
-151 -125 516 172 169 177
-150 -125 517 172 169 177
-149 -125 518 172 169 177
-147 -126 519 172 169 177
-145 -126 519 172 169 177
-143 -125 517 172 169 177
-142 -125 517 173 170 178
-140 -125 517 173 170 178
-138 -125 518 173 170 178
-137 -126 519 175 172 180
-136 -126 520 175 172 180
-134 -126 520 175 172 180
-133 -126 521 175 172 180
-131 -126 520 175 172 180
-129 -126 520 175 172 180
-127 -126 520 175 172 180
-126 -127 522 176 173 181
-124 -127 522 175 172 180
-122 -126 521 175 172 180
-121 -127 522 175 172 180
-119 -126 521 175 172 180
-117 -126 521 175 172 180
-115 -126 520 175 172 180
-114 -126 520 174 171 179
-112 -126 520 176 173 181
-110 -126 520 176 173 181
-109 -126 520 177 174 182
-107 -126 520 177 174 182
-105 -126 519 178 175 183
-103 -126 519 178 175 183
-101 -126 518 179 176 184
-100 -126 517 179 176 184
-98 -126 517 179 176 184
-96 -126 517 179 176 184
-94 -126 517 179 176 184
-93 -126 517 179 176 184
-91 -126 517 178 175 183
-90 -126 518 177 174 182
-88 -126 517 178 175 183
-86 -125 516 178 175 183
-84 -125 516 178 175 183
-83 -125 516 178 175 183
-81 -126 517 177 174 182
-79 -126 516 177 174 182
-77 -125 515 177 174 182
-76 -126 516 177 174 182
-74 -126 516 177 174 182
-72 -126 516 177 174 182
-71 -125 515 178 175 183
-69 -126 516 177 174 182
-67 -125 515 178 175 183
-66 -126 516 177 174 184
-64 -126 516 179 176 186
-62 -126 517 180 177 187
-61 -126 518 179 176 186
-59 -126 518 180 177 187
-57 -126 519 180 177 187
-56 -127 520 180 177 187
-54 -127 521 180 177 187
-52 -126 519 181 178 188
-51 -126 518 181 178 188
-49 -126 517 181 178 186
-47 -126 518 182 179 187
-45 -126 518 182 180 188
-44 -126 518 181 180 188
-42 -126 518 181 180 188
-40 -126 519 182 180 188
-39 -126 519 185 182 190
-37 -127 520 184 182 190
-35 -126 519 183 182 190
-34 -126 519 184 183 191
-32 -127 520 184 183 192
-30 -127 520 184 183 193
-28 -126 518 183 182 192
-27 -126 516 182 181 191
-25 -126 515 182 181 191
-23 -126 515 182 181 191
-21 -125 514 182 181 191
-20 -126 515 183 182 192
-18 -126 515 182 181 191
-16 -126 518 183 182 192
-15 -126 519 184 183 193
-13 -127 519 183 182 192
-11 -127 519 184 183 193
-10 -127 519 184 183 193
-8 -127 519 185 184 194
-6 -127 520 186 185 195
-5 -127 519 186 185 195
-3 -127 519 188 187 197
-1 -126 517 189 188 198
1 -126 518 189 188 198
2 -126 518 190 189 199
4 -127 519 192 191 201
6 -127 519 191 190 200
7 -127 519 190 189 199
9 -126 518 189 188 198
11 -126 516 189 188 198
12 -125 514 188 187 197
14 -125 512 189 188 198
16 -124 510 188 187 197
17 -124 508 189 188 198
19 -124 509 189 188 198
21 -124 509 190 189 199
22 -124 509 191 190 200
24 -124 510 191 190 198
26 -125 512 191 190 198
28 -126 515 191 190 198
29 -125 515 190 189 199
31 -125 515 190 189 197
33 -125 514 190 189 197
34 -125 513 189 188 196
36 -125 512 188 187 195
38 -124 510 189 188 196
39 -124 510 189 188 196
41 -124 511 190 189 197
43 -125 513 190 189 197
44 -125 513 190 189 197
46 -125 514 191 190 198
48 -125 513 192 191 199
50 -125 513 191 190 198
51 -124 511 191 190 198
53 -125 512 191 190 198
54 -125 512 191 190 198
56 -125 512 191 190 198
58 -124 511 191 190 198
59 -124 509 190 189 197
61 -124 508 190 189 197
63 -124 509 189 188 196
64 -124 510 190 189 197
66 -124 511 191 190 198
68 -124 511 191 190 198
69 -124 510 191 190 200
71 -124 509 191 190 200
73 -124 509 190 189 199
74 -124 510 190 189 199
76 -124 511 190 189 199
78 -124 511 191 190 200
80 -124 511 190 189 199
81 -124 511 190 189 199
83 -124 511 191 190 198
84 -124 510 192 191 199
86 -124 511 193 192 200
88 -124 511 192 191 199
90 -124 512 193 192 200
91 -124 511 193 192 200
93 -124 510 194 193 201
94 -123 508 195 193 201
95 -123 506 196 193 201
97 -123 505 196 193 201
98 -122 503 194 193 201
100 -122 503 194 193 201
101 -122 504 193 192 200
103 -123 505 194 193 201
105 -122 504 194 193 201
106 -122 504 194 193 201
108 -122 503 194 193 201
109 -122 502 194 193 201
111 -122 502 194 193 201
113 -122 503 194 193 201
115 -122 504 194 193 201
116 -122 503 193 192 200
118 -122 503 194 193 201
119 -122 503 194 193 201
121 -122 502 195 194 202
122 -122 502 195 194 202
124 -122 502 195 194 202
126 -122 502 196 195 203
127 -121 501 195 194 202
128 -121 500 195 194 202
129 -121 498 195 194 202
131 -121 499 195 194 202
133 -121 499 198 195 205
135 -121 500 197 194 204
136 -121 499 197 194 202
138 -121 501 196 193 201
140 -122 502 197 194 202
142 -122 504 197 194 202
144 -122 504 197 194 202
145 -122 502 197 194 202
146 -121 501 197 194 202
148 -121 501 198 195 203
150 -121 501 198 195 202
151 -121 501 198 195 202
153 -121 502 196 193 200
155 -121 502 197 194 201
156 -121 502 197 194 201
158 -121 502 198 195 203
159 -121 500 198 195 203
161 -121 501 198 195 203
162 -121 499 199 196 203
163 -120 498 200 195 203
164 -120 497 199 194 202
166 -120 498 198 193 201
168 -120 498 199 193 201
170 -120 498 199 193 201
171 -120 497 198 193 202
173 -120 498 198 193 201
174 -120 498 198 193 201
176 -120 498 198 193 201
177 -120 497 199 194 202
179 -120 497 197 193 200
180 -120 497 196 193 200
182 -120 497 196 193 201
183 -120 496 197 194 202
185 -120 496 197 194 201
186 -120 496 197 194 202
188 -120 496 197 194 202
190 -120 497 198 195 203
191 -120 497 197 194 201
192 -119 495 196 194 201
194 -119 496 197 195 203
195 -119 495 198 193 201
197 -119 495 197 192 200
198 -119 494 198 193 201
200 -119 494 199 195 202
201 -119 494 199 195 200
203 -119 494 200 196 201
205 -119 494 201 197 202
206 -119 494 200 196 201
207 -118 492 200 196 201
208 -118 491 200 196 201
210 -118 491 199 195 200
211 -118 491 199 195 200
213 -118 491 199 195 200
214 -118 490 198 194 199
215 -118 490 198 194 199
217 -118 491 198 194 199
219 -118 491 198 194 199
221 -118 492 198 194 199
222 -118 492 197 193 198
224 -118 491 197 193 198
226 -118 492 200 196 201
228 -119 494 200 196 201
230 -119 494 200 196 201
231 -119 494 199 195 200
233 -118 494 199 195 198
235 -119 495 199 195 198
236 -119 495 199 195 198
238 -119 495 200 196 199
239 -119 495 201 194 198
241 -119 495 201 194 198
242 -118 494 202 195 199
243 -118 493 202 195 199
244 -118 492 201 195 196
245 -117 490 200 194 195
247 -118 491 200 194 195
248 -118 491 200 194 195
250 -118 492 201 195 196
253 -118 494 201 195 196
255 -118 494 200 194 195
256 -118 494 201 194 196
258 -118 494 202 194 196
259 -118 493 201 193 195
261 -118 494 201 193 195
263 -119 496 200 192 194
266 -119 498 202 194 196
268 -119 499 202 194 196
270 -119 500 201 193 195
271 -119 498 201 193 195
273 -119 500 202 194 196
277 -120 503 203 195 197
278 -120 502 202 194 196
280 -120 504 200 192 194
282 -120 504 201 193 195
282 -120 501 200 192 194
283 -120 501 200 192 194
285 -120 501 200 192 194
289 -121 506 201 193 193
291 -121 507 201 193 193
291 -120 503 201 193 193
297 -121 506 202 194 194
302 -122 511 202 194 196
304 -122 512 202 193 195
302 -120 503 203 193 193
-322 -121 517 125 115 113
-321 -122 518 126 116 114
-318 -121 516 126 116 114
-316 -121 516 128 116 116
-314 -121 515 127 116 114
-311 -120 513 128 118 117
-310 -120 513 107 97 96
-308 -120 512 104 94 92
-305 -120 510 105 95 93
-303 -120 510 107 97 95
-303 -120 512 115 106 104
-302 -121 514 113 105 103
-302 -121 516 109 101 100
-301 -122 517 111 103 103
-300 -122 518 108 100 100
-300 -123 521 112 104 104
-301 -124 525 112 104 106
-301 -124 529 109 101 103
-301 -125 531 110 102 104
-299 -125 531 109 101 103
-297 -125 530 107 99 101
-295 -125 529 108 100 102
-294 -125 530 108 100 102
-292 -125 530 110 102 102
-290 -125 530 106 98 98
-289 -125 530 107 99 99
-287 -125 531 110 102 103
-286 -125 531 110 104 105
-285 -125 532 112 106 107
-283 -125 532 112 106 107
-281 -125 531 112 106 107
-279 -125 531 114 107 109
-277 -125 531 116 108 110
-276 -125 531 118 110 112
-274 -125 531 119 111 113
-272 -125 531 120 112 114
-271 -126 532 118 110 112
-269 -125 531 119 111 113
-267 -125 531 138 130 132
-266 -126 532 133 125 129
-265 -126 532 123 115 119
-263 -126 532 126 118 122
-261 -126 531 123 115 119
-259 -126 531 121 113 117
-257 -126 531 121 113 117
-255 -125 530 123 115 119
-254 -125 530 124 116 120
-251 -125 529 124 116 120
-250 -125 529 124 116 120
-248 -125 528 126 118 122
-246 -125 528 127 119 123
-244 -125 528 134 129 132
-243 -125 529 141 134 138
-242 -126 530 124 117 122
-240 -126 530 152 148 154
-238 -126 530 162 157 164
-236 -125 529 163 156 163
-235 -125 529 164 157 166
-233 -125 528 163 159 167
-230 -125 527 163 160 167
-228 -125 526 163 160 167
-225 -124 523 163 160 167
-222 -123 519 163 160 167
-220 -123 519 163 160 167
-219 -123 519 164 161 168
-218 -124 521 164 161 168
-216 -124 521 165 162 169
-215 -124 521 165 162 169
-213 -124 522 166 163 170
-212 -124 523 167 164 171
-210 -124 523 166 163 170
-209 -124 523 167 164 171
-207 -124 522 167 164 171
-205 -124 523 166 163 170
-204 -124 523 167 164 171
-202 -125 524 168 163 171
-201 -125 524 170 165 173
-199 -124 523 170 165 173
-197 -124 523 168 163 171
-196 -125 524 169 164 172
-194 -125 524 170 165 173
-192 -125 524 171 166 174
-191 -125 524 171 166 174
-189 -124 523 172 167 175
-187 -124 523 174 169 177
-185 -124 523 174 169 177
-183 -124 521 175 170 178
-181 -124 521 176 171 179
-179 -124 520 175 170 178
-178 -124 520 175 170 178
-176 -124 519 175 170 178
-174 -123 518 175 170 178
-172 -123 517 174 169 177
-170 -123 516 174 169 177
-168 -123 515 173 168 176
-166 -123 515 174 169 177
-164 -123 515 175 170 178
-162 -123 514 174 169 177
-161 -123 515 172 168 175
-159 -122 513 172 169 176
-158 -123 515 171 168 175
-156 -123 515 172 169 176
-155 -123 516 171 168 175
-153 -123 516 171 168 176
-152 -123 517 171 168 176
-150 -124 519 171 168 176
-149 -124 519 171 168 176
-147 -124 520 172 169 177
-146 -124 520 172 169 177
-144 -124 521 172 169 177
-142 -124 520 171 168 176
-141 -124 520 171 168 176
-139 -124 520 172 169 177
-138 -125 521 173 170 178
-136 -125 522 174 171 179
-134 -125 522 175 172 180
-133 -125 523 174 171 179
-131 -125 521 175 172 180
-129 -125 521 175 172 180
-128 -125 522 175 172 180
-126 -125 524 175 172 180
-125 -125 524 174 171 179
-123 -125 523 174 171 179
-121 -125 522 173 170 177
-119 -125 522 173 170 177
-117 -125 521 174 171 178
-116 -125 521 173 170 177
-114 -125 520 174 171 178
-112 -125 520 174 171 178
-110 -125 520 175 172 179
-109 -125 520 175 172 180
-107 -125 520 176 173 181
-105 -125 521 176 173 181
-104 -125 521 177 174 182
-102 -125 521 178 175 183
-100 -125 520 178 175 183
-98 -124 519 178 175 183
-97 -124 519 178 175 183
-95 -124 519 178 175 183
-93 -124 518 178 175 183
-91 -124 519 177 174 182
-90 -124 519 176 173 181
-88 -124 518 175 172 180
-86 -124 517 177 174 182
-84 -124 517 178 175 183
-83 -124 517 178 175 183
-81 -124 518 177 174 182
-79 -124 517 175 172 180
-78 -124 517 177 174 182
-76 -124 518 177 174 182
-74 -124 518 176 173 181
-73 -124 518 177 174 182
-71 -124 517 176 173 181
-69 -124 518 177 174 182
-68 -124 518 177 174 183
-66 -124 518 179 174 185
-64 -125 519 179 174 185
-63 -125 520 180 175 186
-61 -125 521 181 178 188
-59 -125 521 181 178 187
-58 -125 522 180 177 185
-56 -125 522 180 177 185
-54 -126 523 180 177 185
-53 -125 521 180 177 185
-51 -125 520 179 178 186
-49 -125 519 179 178 186
-47 -125 519 181 178 186
-46 -125 519 181 178 186
-44 -125 520 180 179 187
-42 -125 521 180 179 187
-41 -125 521 181 180 188
-39 -125 522 181 180 188
-37 -125 521 181 180 188
-35 -125 521 182 181 189
-34 -125 521 183 182 191
-32 -125 522 183 182 192
-30 -125 522 183 182 192
-29 -125 521 183 182 192
-27 -125 519 181 180 190
-25 -125 518 180 179 189
-23 -124 517 181 180 190
-22 -124 517 182 181 191
-20 -124 516 182 181 191
-18 -125 518 181 180 190
-16 -125 518 182 181 191
-15 -125 519 183 182 192
-13 -125 521 182 181 191
-11 -125 521 182 181 191
-10 -125 521 183 182 192
-8 -125 521 185 184 194
-6 -126 522 185 184 194
-5 -126 523 186 185 195
-3 -126 522 187 186 196
-1 -126 522 187 186 196
1 -125 521 188 187 197
2 -126 522 188 187 197
4 -126 522 189 188 198
6 -125 521 190 189 199
7 -125 521 189 188 198
9 -125 520 188 187 197
11 -125 518 188 187 197
12 -124 516 188 187 197
14 -124 514 187 186 196
16 -123 513 188 187 197
17 -123 511 189 188 198
19 -123 512 188 187 197
21 -123 512 189 188 198
22 -123 512 191 190 200
24 -123 513 191 190 200
26 -124 515 190 189 199
28 -124 516 189 188 198
30 -124 517 189 188 198
31 -124 516 189 188 198
33 -124 516 189 188 198
34 -124 514 189 188 198
36 -124 514 187 186 196
38 -123 512 188 187 197
39 -123 512 188 187 197
41 -123 513 188 187 197
43 -124 514 188 187 197
45 -124 515 188 187 197
47 -124 517 189 188 198
48 -124 517 189 188 198
50 -124 517 190 189 197
51 -124 515 189 188 196
53 -124 515 190 189 197
55 -124 515 190 189 197
57 -124 516 189 188 196
58 -124 515 190 189 197
60 -123 513 189 188 196
61 -123 513 188 187 195
63 -123 512 189 188 197
65 -123 513 188 187 197
66 -123 513 188 187 197
68 -123 513 189 188 198
70 -123 513 190 189 199
71 -123 512 190 189 199
73 -123 513 189 188 198
75 -124 515 189 188 198
77 -124 515 189 188 198
78 -124 515 189 188 198
80 -124 515 189 188 198
82 -124 515 190 189 198
84 -124 515 191 190 198
85 -123 514 192 191 199
87 -124 515 192 191 199
89 -124 516 192 191 199
90 -124 515 192 191 199
92 -124 516 193 191 199
94 -123 515 194 191 199
95 -123 512 193 191 199
96 -122 511 193 192 200
97 -122 508 193 192 200
99 -122 507 192 191 199
100 -122 507 192 191 199
102 -121 507 193 192 200
104 -122 508 193 192 200
105 -121 507 193 192 200
107 -122 508 193 192 200
108 -121 506 192 191 199
110 -121 506 193 192 200
112 -121 506 194 193 201
113 -121 506 194 193 201
116 -122 508 192 191 199
117 -121 507 192 191 199
119 -121 507 193 192 200
120 -121 507 193 192 200
122 -121 506 194 193 201
123 -121 505 192 191 199
125 -121 506 192 191 199
127 -121 507 193 192 200
128 -121 507 194 193 201
130 -121 506 195 194 203
131 -120 503 195 194 204
132 -120 503 195 193 203
134 -120 503 197 194 202
136 -120 503 197 194 202
137 -120 503 197 194 202
139 -120 504 197 194 202
141 -121 506 197 194 202
144 -121 508 197 194 202
145 -121 508 196 193 201
146 -121 506 196 193 201
148 -121 507 197 194 201
149 -121 506 196 193 200
151 -121 506 196 193 200
152 -121 505 195 192 199
154 -121 505 196 193 200
156 -121 507 197 192 200
158 -121 506 197 192 200
160 -121 507 197 192 200
161 -121 506 198 193 201
162 -120 505 198 193 201
164 -120 504 197 192 200
165 -120 503 197 192 200
166 -120 503 196 191 199
168 -120 503 197 192 200
170 -120 503 197 192 200
171 -120 503 197 193 200
173 -120 503 196 193 200
175 -120 504 196 193 200
176 -120 504 195 192 199
178 -120 504 196 193 200
179 -120 503 196 193 200
181 -120 504 196 193 200
183 -120 504 196 193 201
185 -120 504 195 192 199
186 -120 504 195 192 199
188 -120 504 195 192 199
189 -120 504 195 192 199
191 -120 505 195 192 199
193 -120 505 196 193 200
194 -120 504 195 192 199
195 -119 502 195 192 199
197 -119 502 195 192 199
198 -119 501 197 192 200
199 -119 501 196 191 199
201 -119 501 197 192 200
202 -119 500 197 192 200
204 -119 500 198 194 201
206 -119 502 199 195 200
208 -119 502 198 194 199
209 -119 502 199 195 201
210 -119 500 198 193 201
211 -118 499 198 193 201
213 -119 500 198 193 201
215 -119 500 197 192 200
216 -118 498 198 192 200
217 -118 497 199 192 200
218 -117 495 199 192 200
220 -118 496 198 192 199
222 -118 497 196 192 197
224 -118 499 196 192 197
226 -118 499 195 191 196
228 -118 500 197 193 198
229 -118 499 198 194 198
231 -119 501 199 195 198
232 -118 500 198 194 197
234 -118 500 196 192 195
236 -118 500 196 192 195
238 -119 501 197 193 196
239 -119 501 196 192 195
241 -119 502 197 192 195
243 -119 502 198 191 195
244 -119 502 199 192 196
247 -119 503 199 192 196
247 -118 501 198 191 195
249 -118 501 197 190 194
250 -118 500 198 191 195
251 -118 499 198 191 195
252 -118 499 198 191 195
253 -118 498 199 192 196
256 -118 500 199 192 196
259 -119 502 198 191 195
261 -119 504 197 191 195
263 -119 504 196 192 195
264 -119 504 197 193 195
266 -119 504 197 193 194
269 -119 506 199 193 194
272 -120 509 199 193 194
274 -120 510 201 194 195
276 -120 510 199 191 193
277 -120 510 201 193 195
278 -120 509 198 192 193
280 -120 509 198 192 193
280 -119 507 198 192 193
284 -120 510 198 192 193
284 -120 508 198 192 193
286 -120 509 196 192 193
288 -120 510 196 192 193
291 -121 512 197 192 193
294 -121 514 199 191 193
297 -121 516 199 191 193
299 -122 517 199 191 193
298 -121 513 199 191 193
300 -121 514 199 191 193
302 -121 515 200 192 194
305 -122 517 199 191 193
306 -121 516 199 191 193
307 -121 515 199 191 191
307 -120 512 200 192 192
313 -122 519 201 193 193
313 -121 517 201 193 193
316 -122 519 200 192 192
-325 -120 519 123 113 113
-323 -120 519 123 113 113
-321 -120 518 124 114 114
-319 -120 517 125 115 115
-317 -120 517 125 115 115
-315 -120 517 127 117 115
-313 -120 516 127 117 116
-312 -120 517 117 107 107
-309 -119 515 105 95 95
-307 -119 514 104 94 94
-305 -119 513 104 94 94
-304 -119 514 107 97 99
-304 -120 516 110 102 104
-303 -120 517 109 101 103
-302 -120 518 109 101 103
-300 -120 519 106 98 100
-300 -121 521 106 98 100
-301 -122 525 106 98 100
-302 -123 530 121 113 115
-302 -124 534 109 101 103
-301 -124 534 107 99 101
-299 -124 534 105 97 99
-296 -124 532 106 98 100
-295 -124 532 106 98 100
-294 -124 534 106 98 98
-292 -124 534 106 98 98
-291 -124 534 107 99 99
-289 -124 534 109 101 102
-288 -124 535 110 102 104
-286 -124 535 109 101 103
-286 -125 537 109 101 103
-283 -125 536 111 103 105
-281 -124 535 113 105 107
-280 -125 535 112 104 106
-278 -125 535 113 105 107
-277 -125 536 115 107 109
-276 -125 537 116 109 113
-274 -125 537 117 110 114
-272 -125 536 122 115 119
-270 -125 537 117 110 114
-269 -125 537 120 113 117
-267 -125 537 121 115 116
-265 -125 537 142 136 137
-264 -125 537 123 116 118
-262 -125 536 118 110 114
-260 -125 536 117 109 113
-258 -125 535 118 110 114
-256 -125 535 120 112 116
-254 -125 534 120 112 116
-252 -124 533 122 115 119
-250 -125 534 120 113 117
-248 -124 533 122 115 119
-247 -124 533 121 114 118
-245 -125 534 122 115 120
-244 -125 535 123 117 123
-242 -125 535 139 135 141
-241 -125 536 160 155 163
-239 -125 535 159 154 162
-238 -125 536 161 156 165
-235 -125 534 162 157 166
-234 -125 534 162 157 166
-231 -124 532 163 158 167
-228 -124 530 163 158 167
-225 -123 526 164 159 168
-222 -122 523 163 159 167
-220 -122 523 163 160 167
-219 -122 523 163 160 167
-217 -123 524 164 161 168
-215 -122 523 163 160 167
-214 -123 524 164 161 168
-212 -123 524 165 162 169
-211 -123 524 164 161 168
-209 -123 524 166 163 170
-207 -123 523 169 164 172
-206 -123 524 170 165 173
-205 -123 525 168 163 171
-203 -123 525 169 164 173
-201 -123 525 170 165 174
-199 -123 524 168 163 172
-197 -123 524 169 164 173
-196 -123 524 168 163 172
-194 -123 525 169 164 173
-192 -123 524 170 165 174
-191 -123 525 171 166 175
-189 -123 524 171 166 175
-187 -123 524 173 168 177
-186 -123 524 175 170 179
-184 -123 523 174 169 178
-182 -123 522 172 167 176
-180 -123 522 172 167 175
-178 -123 522 173 168 176
-177 -123 522 173 168 176
-175 -122 521 173 168 176
-172 -122 519 173 168 176
-170 -122 518 173 168 177
-168 -121 516 174 169 178
-166 -121 516 172 168 177
-165 -121 516 172 169 177
-163 -121 516 172 169 177
-161 -121 516 170 167 175
-160 -121 516 169 166 174
-158 -122 517 169 166 174
-157 -122 517 170 167 175
-155 -122 518 170 167 175
-154 -122 518 169 166 174
-152 -122 519 169 166 174
-151 -122 519 169 166 174
-149 -122 519 169 166 174
-147 -123 520 171 166 175
-146 -123 521 171 166 175
-145 -123 522 170 166 175
-143 -123 522 170 167 175
-141 -123 522 170 167 175
-140 -123 523 170 167 175
-138 -123 523 171 168 176
-136 -123 523 171 168 176
-135 -124 524 172 169 177
-133 -124 524 174 171 179
-132 -124 524 174 171 179
-130 -123 523 174 171 179
-128 -124 524 173 170 178
-127 -124 525 173 168 177
-125 -124 525 174 169 178
-123 -124 524 172 168 177
-121 -123 523 171 168 176
-119 -123 522 172 169 177
-117 -123 521 172 169 177
-116 -123 521 173 170 178
-114 -123 521 173 170 178
-112 -123 521 174 171 179
-111 -123 521 175 172 180
-109 -123 521 177 174 182
-107 -123 521 175 172 180
-105 -123 521 174 171 179
-104 -123 521 176 173 181
-102 -123 522 177 174 182
-100 -123 521 176 173 181
-99 -123 521 177 174 182
-97 -123 521 176 173 181
-95 -123 520 176 173 181
-93 -123 519 176 173 181
-92 -123 520 176 173 181
-90 -123 519 175 172 180
-88 -123 518 175 172 180
-86 -122 517 175 172 180
-84 -122 517 174 171 179
-83 -123 518 175 172 180
-81 -123 518 177 174 182
-80 -123 519 176 173 181
-78 -123 519 176 173 181
-76 -123 519 176 173 181
-75 -123 520 175 172 180
-73 -123 520 176 173 181
-71 -123 520 175 172 180
-70 -123 520 175 172 180
-68 -123 519 177 173 182
-66 -123 520 178 173 184
-65 -123 521 178 175 185
-63 -124 522 178 175 185
-61 -124 523 179 176 185
-60 -124 522 178 175 183
-58 -124 523 178 175 183
-56 -124 524 178 175 183
-55 -124 524 178 175 183
-53 -124 523 179 176 184
-51 -124 522 177 176 185
-49 -123 521 178 176 186
-47 -123 520 179 176 186
-46 -124 521 178 177 187
-44 -123 520 178 177 187
-42 -124 522 180 179 189
-41 -124 522 180 179 189
-39 -124 522 181 180 190
-37 -124 523 180 179 189
-36 -124 522 179 178 188
-34 -124 522 180 179 189
-32 -124 523 182 181 191
-30 -124 523 183 182 192
-29 -124 523 183 182 192
-27 -124 521 182 181 191
-25 -124 521 180 179 189
-23 -123 520 179 178 188
-22 -123 520 181 180 190
-20 -123 519 181 180 190
-18 -123 519 180 179 189
-17 -123 519 182 181 191
-15 -123 519 182 181 191
-13 -124 521 181 180 190
-11 -124 521 181 180 190
-10 -124 522 182 181 191
-8 -124 523 183 182 192
-6 -124 524 185 184 194
-5 -124 524 185 184 194
-3 -124 524 185 184 194
-1 -124 523 185 184 194
1 -124 523 185 184 194
2 -124 524 186 185 195
4 -124 524 187 186 196
6 -124 524 187 186 196
7 -124 523 185 184 194
9 -124 521 186 185 195
11 -123 519 186 185 195
13 -123 518 185 184 194
14 -123 517 186 185 195
16 -122 516 187 186 196
18 -122 514 187 186 196
19 -122 514 187 186 196
21 -122 514 187 186 196
23 -122 515 189 188 198
24 -123 517 188 187 197
26 -123 518 188 187 197
28 -123 518 189 188 198
30 -123 518 188 187 197
31 -123 517 188 187 197
33 -122 516 188 187 197
34 -122 515 188 187 197
36 -122 514 189 188 198
38 -122 513 188 187 197
39 -121 512 188 187 197
41 -122 514 187 186 196
43 -122 516 185 184 194
45 -123 517 186 185 195
47 -123 519 186 185 195
48 -123 519 187 186 195
50 -123 518 187 186 194
52 -123 517 187 186 194
53 -123 518 188 187 195
55 -123 519 189 188 196
57 -123 520 188 187 195
59 -123 518 189 188 196
60 -122 516 188 187 195
62 -122 516 187 186 194
63 -122 516 187 186 194
65 -122 516 186 185 193
67 -122 516 187 186 194
68 -122 515 188 187 196
70 -122 516 188 187 197
72 -122 515 188 187 197
74 -122 516 188 187 197
76 -123 518 188 187 197
78 -123 520 188 187 197
79 -123 520 188 187 197
81 -123 520 189 188 198
82 -123 519 189 188 198
84 -123 518 190 189 197
86 -123 518 190 189 197
87 -123 518 190 189 197
89 -123 518 190 189 197
91 -123 518 190 189 197
92 -122 517 191 190 198
94 -122 517 193 190 198
95 -122 515 194 191 199
97 -121 513 194 191 199
98 -121 511 193 190 198
100 -121 511 193 190 198
101 -121 511 193 190 198
103 -121 510 194 191 199
105 -121 511 193 190 198
106 -121 510 193 190 198
108 -121 511 193 191 199
109 -120 509 191 190 198
111 -120 509 192 191 199
112 -120 509 190 189 197
114 -120 509 191 190 198
116 -120 510 191 190 198
117 -120 509 192 191 199
119 -120 509 192 191 199
121 -120 509 192 191 199
122 -120 509 192 191 199
124 -120 509 191 190 198
126 -120 509 191 190 198
128 -121 512 191 190 198
129 -121 511 192 191 199
131 -120 510 192 191 199
132 -120 508 192 191 201
133 -120 507 193 192 202
135 -120 507 193 192 200
136 -119 506 194 193 201
138 -119 505 194 193 201
140 -120 508 194 192 200
142 -120 508 196 193 201
144 -120 509 196 193 201
146 -120 510 196 193 201
147 -120 509 195 192 200
149 -120 509 196 193 200
150 -120 509 196 193 200
152 -120 508 195 192 199
153 -120 508 194 191 198
155 -120 508 194 191 198
157 -120 508 194 191 198
159 -120 509 194 191 198
161 -120 510 194 190 198
162 -120 510 195 192 199
164 -120 509 195 192 199
165 -119 508 194 191 198
166 -119 507 193 190 197
168 -119 507 194 191 198
169 -119 507 193 190 197
171 -119 507 194 191 198
173 -119 508 194 191 198
175 -119 508 194 191 198
177 -120 509 194 191 198
178 -120 509 194 191 198
180 -120 509 193 190 195
182 -120 510 194 191 196
183 -120 510 194 191 196
185 -120 510 193 190 195
187 -120 511 194 191 196
188 -120 510 193 190 197
190 -120 510 193 190 197
192 -120 511 194 191 198
193 -120 510 194 191 198
195 -120 511 194 191 198
197 -120 510 194 191 198
197 -119 507 193 190 197
199 -119 507 192 189 196
200 -119 507 191 190 197
202 -119 507 194 191 198
203 -119 507 195 192 199
204 -118 505 195 192 199
206 -119 506 196 192 199
208 -118 506 196 192 197
210 -118 506 197 193 198
211 -118 505 197 193 198
212 -118 505 196 192 197
214 -118 504 195 191 196
216 -118 505 195 191 196
217 -118 505 195 191 196
218 -118 503 194 190 195
219 -117 502 195 191 196
220 -117 501 195 191 196
221 -117 500 195 192 197
224 -118 503 194 191 196
226 -118 503 194 191 196
228 -118 504 193 190 195
230 -118 506 194 191 196
232 -118 505 195 191 196
233 -118 505 195 191 196
235 -118 506 194 190 195
236 -118 505 193 189 193
238 -118 506 194 190 195
240 -118 506 195 191 195
241 -118 504 195 191 194
243 -118 505 195 191 194
245 -118 506 195 191 194
246 -118 506 199 195 198
248 -118 506 199 195 198
249 -118 505 195 190 193
251 -118 505 196 189 193
252 -117 504 197 190 194
253 -117 504 199 192 196
255 -117 504 200 193 196
256 -117 502 198 192 193
259 -118 505 198 192 193
261 -118 507 197 191 192
264 -119 509 197 191 192
266 -118 509 197 191 192
268 -119 510 195 189 190
269 -119 510 196 190 191
271 -119 510 196 190 191
273 -119 511 197 191 192
276 -119 513 197 191 191
277 -119 513 197 191 190
279 -119 513 196 190 190
279 -119 511 195 189 190
282 -119 512 196 190 191
281 -118 509 196 190 191
286 -120 515 196 189 190
286 -119 512 196 188 190
288 -119 512 197 189 191
291 -119 514 198 190 192
294 -120 517 198 190 192
298 -121 521 198 190 192
300 -121 522 197 189 191
301 -121 520 198 190 192
302 -121 520 198 190 192
303 -120 518 197 189 191
303 -119 515 197 189 191
308 -121 522 197 189 191
307 -120 517 197 189 191
312 -121 522 199 191 191
314 -121 523 199 191 191
314 -121 521 200 192 192
317 -121 523 201 193 193
320 -122 526 200 192 192
323 -122 528 199 191 191
-327 -119 523 120 110 110
-324 -119 521 122 112 110
-322 -119 520 123 113 111
-320 -118 519 122 113 111
-318 -118 518 122 114 112
-315 -118 517 123 115 113
-314 -118 517 124 115 113
-312 -118 517 128 118 117
-310 -118 516 111 101 101
-309 -118 517 104 94 94
-307 -118 516 116 106 106
-306 -118 517 127 118 118
-304 -118 517 119 111 113
-303 -118 517 105 97 99
-302 -119 518 104 96 98
-300 -119 519 109 101 103
-299 -119 520 104 96 98
-300 -120 524 103 95 97
-301 -121 529 132 124 126
-302 -122 533 129 121 123
-301 -123 535 106 98 100
-300 -123 536 106 98 100
-298 -123 535 113 105 107
-296 -123 535 106 98 100
-295 -123 536 106 98 100
-294 -123 537 107 99 101
-293 -123 538 105 97 98
-291 -123 537 105 97 97
-289 -123 537 109 101 103
-287 -123 537 109 101 103
-287 -124 539 109 101 103
-285 -124 539 109 101 103
-284 -124 540 111 103 106
-282 -124 539 113 105 109
-280 -124 539 114 107 111
-279 -124 540 113 106 110
-278 -124 542 116 108 112
-276 -124 542 117 109 113
-275 -125 542 119 111 115
-273 -125 542 117 109 113
-271 -124 541 119 111 115
-269 -124 541 116 108 112
-267 -124 541 113 105 107
-266 -124 541 115 107 110
-264 -124 541 116 108 112
-262 -124 540 116 109 113
-260 -124 540 115 108 112
-258 -124 539 116 109 113
-256 -124 539 119 113 116
-254 -124 538 128 124 127
-252 -124 538 117 113 116
-251 -124 538 116 112 115
-249 -124 538 121 114 119
-248 -124 539 124 117 123
-246 -124 539 122 115 121
-244 -124 539 127 123 129
-243 -124 540 159 154 162
-241 -124 540 160 155 164
-239 -124 539 161 156 165
-237 -124 539 161 156 165
-235 -124 538 161 156 164
-234 -124 538 161 156 164
-231 -124 537 161 156 164
-228 -123 534 162 158 165
-226 -123 532 162 159 166
-223 -122 529 162 159 166
-220 -122 527 162 159 166
-218 -121 525 162 159 166
-216 -121 525 162 159 166
-214 -121 524 163 160 167
-212 -121 524 163 160 167
-211 -121 524 162 159 166
-210 -121 525 165 160 168
-208 -121 525 168 163 171
-206 -121 525 170 165 173
-205 -122 526 170 165 173
-203 -121 525 170 165 173
-202 -122 526 168 163 171
-200 -122 526 161 156 164
-198 -122 526 156 151 159
-197 -122 526 170 165 173
-194 -121 525 169 164 172
-192 -121 524 170 165 173
-191 -122 525 169 164 172
-189 -121 524 170 165 173
-187 -121 524 172 167 175
-185 -121 523 172 167 175
-183 -120 520 169 164 172
-181 -120 520 169 164 172
-180 -121 521 170 165 173
-178 -121 522 171 166 174
-177 -121 523 172 167 175
-175 -121 521 171 166 174
-172 -120 519 171 166 174
-170 -120 518 171 166 174
-168 -120 517 170 166 173
-167 -120 518 169 166 174
-165 -120 518 170 167 175
-164 -120 518 171 168 176
-162 -120 518 170 167 175
-160 -120 518 169 166 174
-159 -120 519 169 166 174
-157 -120 519 169 166 174
-156 -121 520 168 165 173
-154 -121 520 169 166 174
-153 -121 520 169 166 174
-151 -121 520 168 165 173
-149 -121 520 169 166 174
-148 -121 522 170 165 174
-147 -122 523 169 165 174
-145 -122 524 169 166 174
-144 -122 525 169 166 174
-142 -122 525 169 166 174
-140 -122 525 167 166 174
-139 -122 526 168 167 175
-137 -122 525 167 166 174
-135 -122 525 168 167 175
-134 -122 525 168 167 175
-132 -122 525 170 169 177
-130 -122 525 174 171 179
-128 -122 525 173 170 178
-127 -122 526 172 169 177
-125 -122 526 171 168 176
-123 -122 525 171 167 175
-121 -122 524 171 168 176
-119 -122 523 170 167 175
-118 -122 522 171 168 176
-116 -122 522 171 168 176
-114 -122 522 172 169 177
-112 -122 522 174 171 179
-111 -122 522 175 172 180
-109 -122 522 175 172 180
-107 -122 522 174 171 179
-106 -122 523 175 172 180
-104 -122 524 175 172 180
-103 -122 524 174 171 179
-101 -122 523 175 172 180
-99 -122 522 175 172 180
-97 -122 521 175 172 180
-95 -121 520 176 173 181
-93 -121 519 176 173 181
-92 -121 520 176 173 181
-90 -121 519 176 173 181
-88 -121 519 175 172 180
-86 -121 518 173 170 178
-85 -121 519 174 171 179
-83 -121 519 174 171 179
-81 -121 520 174 171 179
-80 -121 520 174 171 179
-78 -121 520 175 172 180
-76 -121 520 178 175 183
-75 -122 521 177 174 182
-73 -122 521 176 173 181
-72 -122 522 175 172 180
-70 -122 522 174 171 179
-68 -122 521 175 172 180
-66 -122 522 176 173 182
-65 -122 523 176 173 181
-63 -122 523 177 174 182
-62 -122 524 177 174 182
-60 -122 523 177 174 182
-58 -122 524 178 175 183
-56 -122 524 178 175 183
-55 -123 525 178 175 183
-53 -122 524 177 174 182
-51 -122 523 178 175 183
-49 -122 523 178 176 184
-47 -122 521 178 177 185
-46 -122 522 178 177 185
-44 -122 522 178 177 187
-42 -122 522 178 177 187
-41 -122 523 178 177 187
-39 -123 524 179 178 188
-37 -123 525 179 178 188
-36 -123 524 178 177 187
-34 -123 524 179 178 188
-32 -123 525 182 181 191
-30 -123 524 182 181 191
-29 -123 524 182 181 191
-27 -122 523 181 180 190
-25 -122 523 180 179 189
-23 -122 522 179 178 188
-22 -122 522 179 178 188
-20 -122 522 181 180 190
-18 -122 521 181 180 190
-17 -122 520 181 180 190
-15 -122 520 181 180 190
-13 -122 521 180 179 189
-11 -122 523 181 180 190
-10 -123 524 182 181 191
-8 -123 524 183 182 192
-6 -123 525 182 181 191
-5 -123 526 183 182 192
-3 -123 526 183 182 192
-1 -123 525 184 183 193
1 -123 524 184 183 193
2 -123 525 184 183 193
4 -123 525 185 184 194
6 -123 525 185 184 194
7 -123 524 184 183 193
9 -122 522 184 183 193
11 -122 520 184 183 193
13 -121 519 185 184 194
14 -121 519 185 184 194
16 -121 518 186 185 195
18 -121 517 186 185 195
19 -121 517 187 186 196
21 -121 518 187 186 196
23 -121 519 186 185 195
25 -122 520 187 186 196
26 -121 519 187 186 196
28 -121 519 187 186 196
30 -121 519 187 186 196
31 -121 518 187 186 196
33 -121 517 187 186 196
35 -121 516 187 186 196
36 -120 514 187 186 196
38 -120 514 187 186 196
40 -120 515 187 186 196
41 -121 516 187 186 196
43 -121 518 186 185 195
45 -121 519 186 185 195
47 -122 520 186 185 195
49 -122 521 185 184 194
50 -122 521 185 184 194
52 -122 520 186 185 195
54 -122 521 187 186 195
55 -122 521 188 187 195
57 -122 522 187 186 196
59 -122 521 188 187 197
60 -122 520 188 187 197
62 -121 519 187 186 196
64 -121 520 186 185 195
65 -121 519 185 184 194
67 -121 519 185 184 194
69 -121 518 187 186 196
70 -121 518 188 187 197
72 -121 518 188 187 197
74 -121 518 187 186 196
76 -121 520 186 185 195
78 -122 522 186 185 195
80 -122 523 187 186 196
81 -122 523 189 188 198
83 -122 521 189 188 198
84 -121 520 189 188 196
86 -121 518 189 188 196
88 -121 519 188 187 195
89 -121 520 188 187 195
91 -121 520 189 188 196
92 -121 518 189 188 196
94 -121 518 191 188 196
95 -120 516 190 188 196
97 -120 515 189 188 196
98 -120 514 190 189 197
100 -120 514 190 189 197
102 -120 514 190 189 197
103 -120 513 189 188 196
105 -119 512 190 189 197
106 -119 512 190 189 197
108 -120 513 190 189 197
110 -119 512 190 189 197
111 -119 512 190 189 197
113 -119 512 190 189 197
115 -119 512 189 188 196
117 -119 513 191 190 198
118 -119 512 190 189 197
120 -119 512 190 189 197
121 -119 512 190 189 197
123 -119 512 189 188 196
125 -119 512 189 188 196
127 -119 513 189 188 196
129 -120 514 191 190 198
130 -119 513 191 190 198
131 -119 512 191 190 198
133 -119 511 191 190 200
134 -119 510 191 190 200
136 -119 511 190 191 199
138 -119 510 191 190 198
139 -119 510 191 190 198
141 -119 512 191 190 198
143 -119 512 192 190 198
145 -119 512 193 190 198
146 -119 512 194 191 199
148 -119 511 193 190 198
150 -119 512 193 190 197
151 -119 511 193 190 197
153 -119 511 193 190 197
154 -119 511 193 190 197
156 -119 511 192 189 196
158 -119 511 193 190 197
159 -119 511 193 190 197
161 -119 512 193 190 197
163 -119 512 193 190 197
164 -119 511 193 190 197
166 -119 511 192 189 196
167 -118 511 192 189 196
169 -119 512 192 189 196
171 -119 512 192 189 196
173 -119 512 192 189 196
175 -119 513 192 189 197
176 -119 513 193 190 198
178 -119 514 192 189 197
180 -119 514 192 189 196
182 -119 514 192 189 196
183 -119 514 193 190 196
185 -119 514 192 189 194
187 -119 515 193 190 195
188 -119 514 192 189 194
190 -119 514 193 190 197
192 -119 515 193 190 197
193 -119 514 193 190 197
195 -119 515 193 190 197
197 -119 515 193 190 197
198 -119 513 191 188 195
198 -118 510 191 188 195
199 -118 509 191 189 196
201 -118 509 191 190 197
203 -118 510 192 189 196
205 -118 511 193 190 197
207 -118 511 194 191 198
208 -118 511 196 191 198
210 -118 511 196 191 196
211 -118 510 197 190 196
213 -118 510 196 189 195
214 -117 509 195 191 196
215 -117 508 194 190 195
216 -117 507 194 190 195
218 -117 507 194 190 195
220 -117 507 194 190 195
221 -117 506 194 190 195
222 -116 505 193 190 195
224 -116 505 193 190 195
226 -117 506 194 190 195
228 -117 508 195 191 196
230 -117 509 194 190 195
232 -118 510 190 186 191
234 -117 510 189 185 190
235 -117 509 189 184 190
237 -117 510 191 184 190
238 -117 509 191 184 190
240 -117 509 189 185 190
241 -117 509 190 185 190
242 -117 507 193 186 192
245 -117 509 192 185 190
246 -117 508 192 185 189
247 -117 508 193 186 190
249 -117 507 194 187 191
249 -116 505 195 188 192
251 -116 506 196 189 195
253 -116 506 196 189 195
254 -116 506 198 191 196
257 -116 507 199 192 196
258 -116 507 197 190 194
260 -116 507 196 189 193
262 -117 509 195 188 191
265 -117 511 193 187 189
266 -117 510 197 190 194
268 -117 511 200 193 197
269 -117 510 198 191 195
271 -117 511 196 189 193
274 -117 512 197 191 192
275 -117 512 196 190 191
277 -117 512 196 190 191
278 -117 512 194 188 189
280 -117 512 194 188 189
282 -118 513 194 188 189
284 -118 513 194 188 189
285 -117 512 195 188 189
287 -118 513 195 187 189
290 -118 516 195 187 189
292 -118 516 195 187 189
296 -119 521 195 187 189
298 -120 522 196 188 190
301 -120 524 196 188 190
304 -120 526 197 189 191
303 -119 521 197 189 191
305 -119 522 195 187 189
306 -119 521 196 188 190
309 -120 523 197 189 191
312 -120 525 198 190 191
312 -120 523 198 190 190
317 -121 528 198 190 190
319 -121 529 199 191 191
323 -122 533 199 191 191
324 -122 532 200 192 192
325 -121 530 199 191 191
-328 -118 524 120 110 110
-326 -118 523 120 110 110
-323 -117 522 120 110 110
-321 -117 520 121 111 111
-318 -117 519 122 112 112
-317 -117 519 123 113 113
-314 -117 518 124 114 114
-312 -116 517 122 114 114
-311 -116 517 112 104 104
-309 -117 517 104 96 96
-307 -116 516 110 102 102
-306 -117 518 138 130 130
-305 -117 519 133 125 126
-304 -117 519 117 109 111
-302 -117 519 101 93 95
-301 -117 519 103 95 97
-299 -117 520 101 93 95
-300 -118 523 103 95 97
-301 -119 528 106 98 100
-301 -120 532 123 115 119
-301 -121 535 114 106 108
-300 -121 535 103 95 97
-298 -121 534 109 101 103
-297 -121 536 105 97 99
-297 -122 539 105 97 99
-296 -122 540 105 97 99
-295 -122 541 104 96 98
-293 -122 541 129 121 123
-290 -122 539 121 113 115
-288 -122 538 113 105 107
-287 -122 540 107 99 101
-286 -122 541 131 123 125
-286 -123 543 120 112 116
-284 -123 544 109 101 105
-283 -123 544 109 101 105
-281 -123 545 109 101 105
-280 -123 545 111 103 107
-278 -123 545 112 104 108
-276 -123 545 114 106 110
-275 -123 545 118 110 114
-273 -123 545 111 103 107
-272 -124 546 111 103 107
-270 -124 546 112 104 108
-268 -124 546 114 106 110
-266 -124 545 115 107 111
-264 -124 545 113 105 109
-262 -123 544 115 107 111
-260 -123 544 116 108 112
-258 -123 543 118 110 114
-256 -123 543 115 107 111
-255 -123 543 115 107 111
-253 -123 544 116 108 112
-252 -124 544 121 114 119
-250 -124 544 122 118 123
-248 -124 544 121 116 121
-247 -124 544 122 115 122
-245 -124 544 155 149 157
-244 -124 545 160 155 164
-242 -124 545 161 156 165
-240 -124 545 161 156 165
-238 -124 544 161 156 165
-236 -124 544 161 156 164
-234 -123 543 161 156 164
-231 -123 541 161 156 164
-229 -123 540 163 158 166
-225 -122 535 163 158 166
-222 -121 531 163 158 166
-219 -120 528 163 158 166
-217 -120 526 165 160 168
-215 -120 525 165 160 168
-213 -119 524 165 160 168
-211 -119 524 163 158 166
-210 -120 525 165 160 168
-208 -120 526 167 162 170
-207 -120 527 168 163 171
-205 -120 526 169 164 172
-203 -120 526 169 164 172
-201 -120 525 169 164 172
-200 -120 526 170 165 173
-198 -120 526 168 163 171
-197 -120 527 171 166 174
-195 -120 527 170 165 173
-193 -120 525 169 164 172
-191 -120 524 169 164 172
-189 -119 523 169 164 173
-187 -119 522 169 164 172
-185 -119 522 168 163 171
-183 -119 520 167 162 170
-181 -119 519 168 163 171
-179 -119 519 168 163 171
-178 -119 521 169 164 172
-177 -120 523 168 164 172
-175 -119 522 168 165 172
-173 -119 521 168 165 173
-171 -119 520 168 165 173
-169 -119 520 169 166 174
-168 -119 520 169 166 174
-166 -119 521 170 167 175
-165 -119 521 170 167 175
-163 -119 522 169 166 174
-161 -119 521 170 167 175
-160 -119 521 170 167 175
-158 -119 521 169 166 174
-156 -119 521 170 167 175
-155 -120 522 169 166 175
