# .PCD v0.7 - Point Cloud Data file format
VERSION 0.7
FIELDS x y z rgb
SIZE 4 4 4 4
TYPE F F F U
COUNT 1 1 1 1
WIDTH 1146
HEIGHT 1
VIEWPOINT 0 0 0 1 0 0 0
POINTS 1146
DATA ascii
0.293457 0.089843802 -0.43457001 6317151
0.294678 0.089599602 -0.43359399 6317151
0.296875 0.089599602 -0.43359399 6317151
0.29882801 0.089599602 -0.43359399 6317151
0.301025 0.089599602 -0.43359399 6317151
0.302246 0.089416496 -0.43261701 6317151
0.30419901 0.089416496 -0.43261701 6317151
0.30639601 0.089416496 -0.43261701 6317151
0.30835 0.089416496 -0.43261701 6317151
0.310303 0.089416496 -0.43261701 6317151
0.3125 0.089416496 -0.43261701 6317151
0.31518599 0.089599602 -0.43359399 6317151
0.317139 0.089599602 -0.43359399 6317151
0.319336 0.089599602 -0.43359399 6317151
0.321289 0.089599602 -0.43359399 6317151
0.323975 0.089843802 -0.43457001 6317151
0.32617199 0.089843802 -0.43457001 6317151
0.328125 0.089843802 -0.43457001 6317151
0.330322 0.089843802 -0.43457001 6317151
0.331543 0.089599602 -0.43359399 6317151
0.333496 0.089599602 -0.43359399 6317151
0.335693 0.089599602 -0.43359399 6317151
0.33764601 0.089599602 -0.43359399 6317151
0.3396 0.089599602 -0.43359399 6317151
0.34179699 0.089599602 -0.43359399 6317151
0.343018 0.089416496 -0.43261701 6317151
0.344971 0.089416496 -0.43261701 6317151
0.34692401 0.089416496 -0.43261701 6317151
0.349121 0.089416496 -0.43261701 6317151
0.35107401 0.089416496 -0.43261701 6317151
0.35302699 0.089416496 -0.43261701 6317151
0.35424799 0.089233398 -0.43164101 6317151
0.35644501 0.089233398 -0.43164101 6317151
0.35839799 0.089233398 -0.43164101 6317151
0.36035201 0.089233398 -0.43164101 6317151
0.36254901 0.089233398 -0.43164101 6317151
0.36450201 0.089233398 -0.43164101 6317151
0.36645499 0.089233398 -0.43164101 6317151
0.36840799 0.089233398 -0.43164101 6317151
0.37060499 0.089233398 -0.43164101 6317151
0.37255901 0.089233398 -0.43164101 6317151
0.373779 0.088989303 -0.430664 6317151
0.375732 0.088989303 -0.430664 6317151
0.37768599 0.088989303 -0.430664 6317151
0.37988299 0.088989303 -0.430664 6317151
0.381836 0.088989303 -0.430664 6317151
0.383789 0.088989303 -0.430664 6317151
0.385986 0.088989303 -0.430664 6317151
0.38793901 0.088989303 -0.430664 6317151
0.389893 0.088989303 -0.430664 6317151
0.39208999 0.088989303 -0.430664 6317151
0.39306599 0.088806197 -0.429443 6317151
0.39502001 0.088806197 -0.429443 6317151
0.39721701 0.088806197 -0.429443 6317151
0.398193 0.088561997 -0.42846701 6317151
0.40014601 0.088561997 -0.42846701 6317151
0.40234399 0.088561997 -0.42846701 6317151
0.40429699 0.088561997 -0.42846701 6317151
0.40625 0.088561997 -0.42846701 6317151
0.40820301 0.088561997 -0.42846701 6317151
0.4104 0.088561997 -0.42846701 6317151
0.41235399 0.088561997 -0.42846701 6317151
0.414307 0.088561997 -0.42846701 6317151
0.41626 0.088561997 -0.42846701 6317151
0.418457 0.088561997 -0.42846701 6317151
0.41943401 0.088378899 -0.42749 6317151
0.42138699 0.088378899 -0.42749 6317151
0.42333999 0.088378899 -0.42749 6317151
-0.350586 0.096313499 -0.476807 7961976
-0.348389 0.096313499 -0.476807 7895930
-0.345947 0.096313499 -0.476807 7960953
-0.34375 0.096313499 -0.476807 7960953
-0.341553 0.096313499 -0.476807 8159102
-0.33935499 0.096313499 -0.476807 8027516
-0.33715799 0.096313499 -0.476807 8159872
-0.33422899 0.096069299 -0.47582999 7896702
-0.33178699 0.096069299 -0.47582999 7961725
-0.32958999 0.096069299 -0.47582999 7501944
-0.32666001 0.095886201 -0.47485399 7830909
-0.32446301 0.095886201 -0.47485399 7567737
-0.32226601 0.095886201 -0.47485399 7435381
-0.320068 0.095886201 -0.47485399 7895932
-0.317871 0.095886201 -0.47485399 7961725
-0.31494099 0.095703103 -0.47363299 7830139
-0.31274399 0.095703103 -0.47363299 7895932
-0.31054699 0.095703103 -0.47363299 7961725
-0.30810499 0.095703103 -0.47363299 8027518
-0.30590799 0.095703103 -0.47363299 8027518
-0.303711 0.095703103 -0.47363299 7895932
-0.30078101 0.095458999 -0.47265601 7961725
-0.29858401 0.095458999 -0.47265601 7895932
-0.29638699 0.095458999 -0.47265601 8027518
-0.29418901 0.095458999 -0.47265601 7896702
-0.29126 0.095275901 -0.47167999 8027516
-0.28906301 0.095275901 -0.47167999 8422274
-0.286865 0.095275901 -0.47167999 8553860
-0.28417999 0.095092803 -0.47070301 8619653
-0.281982 0.095092803 -0.47070301 8487297
-0.27978501 0.095092803 -0.47070301 8618885
-0.27685499 0.094909698 -0.46972701 8487299
-0.27465799 0.094909698 -0.46972701 8552835
-0.272461 0.094909698 -0.46972701 8158332
-0.269775 0.094665498 -0.46875 8027516
-0.26757801 0.094665498 -0.46875 7895930
-0.26538101 0.094665498 -0.46875 8158334
-0.26318401 0.094665498 -0.46875 7961725
-0.26074201 0.094665498 -0.46875 8159102
-0.25854501 0.094665498 -0.46875 8290688
-0.25585899 0.0944824 -0.46777299 7896700
-0.25366199 0.0944824 -0.46777299 7962493
-0.25146499 0.0944824 -0.46777299 7896700
-0.24939001 0.0944824 -0.46777299 8290688
-0.246582 0.094299302 -0.46679699 8356481
-0.244385 0.094299302 -0.46679699 8093309
-0.24218801 0.094299302 -0.46679699 8093309
-0.23999 0.094299302 -0.46679699 8093309
-0.237305 0.094055198 -0.46557599 8487550
-0.235107 0.094055198 -0.46557599 8290171
-0.23291001 0.094055198 -0.46557599 8421757
-0.230225 0.0938721 -0.4646 8290171
-0.228027 0.0938721 -0.4646 8684929
-0.225952 0.0938721 -0.4646 8619136
-0.223755 0.0938721 -0.4646 8882308
-0.22106899 0.093689002 -0.46362299 8553343
-0.218872 0.093689002 -0.46362299 8553090
-0.216675 0.093689002 -0.46362299 8553090
-0.214478 0.093689002 -0.46362299 8487297
-0.21228001 0.093689002 -0.46362299 8618883
-0.210205 0.093689002 -0.46362299 8553090
-0.20800801 0.093689002 -0.46362299 8159102
-0.205322 0.093444802 -0.46264601 8488067
-0.203125 0.093444802 -0.46264601 8487297
-0.200928 0.093444802 -0.46264601 8553090
-0.198853 0.093444802 -0.46264601 8553090
-0.19665501 0.093444802 -0.46264601 8487297
-0.19445799 0.093444802 -0.46264601 8421504
-0.192261 0.093444802 -0.46264601 8684676
-0.190063 0.093444802 -0.46264601 8618883
-0.187988 0.093444802 -0.46264601 8750469
-0.185791 0.093444802 -0.46264601 8618879
-0.183594 0.093444802 -0.46264601 8750465
-0.18139599 0.093444802 -0.46264601 8618626
-0.17883299 0.093261696 -0.46167001 8487040
-0.176636 0.093261696 -0.46167001 8553090
-0.174438 0.093261696 -0.46167001 8750469
-0.172363 0.093261696 -0.46167001 8289918
-0.170166 0.093261696 -0.46167001 8553090
-0.167603 0.093078598 -0.460693 8289918
-0.16540501 0.093078598 -0.460693 8421757
-0.16333 0.093078598 -0.460693 8290171
-0.16113301 0.093078598 -0.460693 8224378
-0.15856899 0.092834502 -0.45971701 8487550
-0.15649401 0.092834502 -0.45971701 8224378
-0.15429699 0.092834502 -0.45971701 8290171
-0.151733 0.092651397 -0.45874 8224378
-0.14965799 0.092651397 -0.45874 8290171
-0.147461 0.092651397 -0.45874 8290171
-0.145264 0.092651397 -0.45874 8026999
-0.143188 0.092651397 -0.45874 8026746
-0.140747 0.092468299 -0.457764 8224125
-0.13855 0.092468299 -0.457764 8487550
-0.136353 0.092468299 -0.457764 8487550
-0.134277 0.092468299 -0.457764 8224378
-0.13208 0.092468299 -0.457764 8224378
-0.12988301 0.092468299 -0.457764 8421757
-0.127441 0.092224099 -0.456543 8684929
-0.125366 0.092224099 -0.456543 8224378
-0.12323 0.092224099 -0.456543 8487293
-0.121094 0.092224099 -0.456543 8158328
-0.118652 0.092041001 -0.45556599 8092535
-0.116516 0.092041001 -0.45556599 8224121
-0.11438 0.092041001 -0.45556599 8158328
-0.112244 0.092041001 -0.45556599 8224121
-0.110107 0.092041001 -0.45556599 8289914
-0.107971 0.092041001 -0.45556599 8355707
-0.105591 0.091857903 -0.45458999 8553343
-0.103455 0.091857903 -0.45458999 8421757
-0.101318 0.091857903 -0.45458999 8289918
-0.099182099 0.091857903 -0.45458999 8289918
-0.097045898 0.091857903 -0.45458999 8290171
-0.094909698 0.091857903 -0.45458999 8421757
-0.0927734 0.091857903 -0.45458999 8289914
-0.0906372 0.091857903 -0.45458999 8224121
-0.088256799 0.091613799 -0.45361301 8224121
-0.086120598 0.091613799 -0.45361301 8158328
-0.083984397 0.091613799 -0.45361301 8224121
-0.0818481 0.091613799 -0.45361301 8224121
-0.079711899 0.091613799 -0.45361301 8289914
-0.077575698 0.091613799 -0.45361301 8553086
-0.075500503 0.091613799 -0.45361301 8618879
-0.073364303 0.091613799 -0.45361301 9276809
-0.071227998 0.091613799 -0.45361301 8289914
-0.069091797 0.091613799 -0.45361301 8092535
-0.066955604 0.091613799 -0.45361301 8026999
-0.064636201 0.091430701 -0.45263699 7961206
-0.062560998 0.091430701 -0.45263699 8158328
-0.060424801 0.091430701 -0.45263699 8289914
-0.0582886 0.091430701 -0.45263699 8355707
-0.056152299 0.091430701 -0.45263699 8158328
-0.054016098 0.091430701 -0.45263699 8224121
-0.0519104 0.091430701 -0.45263699 8224121
-0.0497742 0.091430701 -0.45263699 8092535
-0.047546402 0.091247603 -0.45166001 8158328
-0.045410201 0.091247603 -0.45166001 8158328
-0.043304399 0.091247603 -0.45166001 8158328
-0.041168202 0.091247603 -0.45166001 8224121
-0.039032001 0.091247603 -0.45166001 8158328
-0.036834698 0.091003403 -0.45068401 8158328
-0.034729 0.091003403 -0.45068401 7895156
-0.0325928 0.091003403 -0.45068401 8026742
-0.0304871 0.091003403 -0.45068401 8026742
-0.0283661 0.091003403 -0.45068401 8092535
-0.0262451 0.091003403 -0.45068401 8092535
-0.024124101 0.091003403 -0.45068401 8289914
-0.0220032 0.091003403 -0.45068401 8224121
-0.0198822 0.091003403 -0.45068401 9013637
-0.017761201 0.091003403 -0.45068401 8026999
-0.0156403 0.091003403 -0.45068401 8750722
-0.013504 0.090820298 -0.449707 8092792
-0.0113831 0.090820298 -0.449707 7895156
-0.0092697097 0.090820298 -0.449707 7763570
-0.00714111 0.0906372 -0.44872999 7434605
-0.0050315899 0.0906372 -0.44872999 8026740
-0.00292206 0.0906372 -0.44872999 7829361
-0.00081348402 0.0906372 -0.44872999 7763568
0.00129318 0.090393104 -0.44751 7895154
0.0033988999 0.090393104 -0.44751 7829361
0.0055007902 0.090393104 -0.44751 7303017
0.0076065101 0.090393104 -0.44751 7763568
0.0097122202 0.090393104 -0.44751 7763822
0.0117874 0.090209998 -0.44653299 7566443
0.0138931 0.090209998 -0.44653299 7829615
0.0159912 0.090209998 -0.44653299 7763568
0.0180817 0.090209998 -0.44653299 7829361
0.0201874 0.090209998 -0.44653299 7697775
0.0222931 0.090209998 -0.44653299 7763568
0.0243835 0.090209998 -0.44653299 7763568
0.0264282 0.0900269 -0.445557 7763568
0.0285339 0.0900269 -0.445557 7763568
0.030624401 0.0900269 -0.445557 7697775
0.032714799 0.0900269 -0.445557 7566189
0.034820601 0.0900269 -0.445557 7566189
0.0368958 0.0900269 -0.445557 7763568
0.039001498 0.0900269 -0.445557 7828591
0.0411072 0.0900269 -0.445557 7828591
0.043182399 0.0900269 -0.445557 7566189
0.045288101 0.0900269 -0.445557 7697775
0.047393799 0.0900269 -0.445557 7631982
0.049469002 0.0900269 -0.445557 7566191
0.0515747 0.0900269 -0.445557 7763570
0.053558301 0.0897827 -0.44457999 7631984
0.0556335 0.0897827 -0.44457999 7763570
0.057739299 0.0897827 -0.44457999 7566191
0.059814502 0.0897827 -0.44457999 7368812
0.0619202 0.0897827 -0.44457999 7303019
0.063964799 0.0897827 -0.44457999 7697777
0.066101097 0.0897827 -0.44457999 7565938
0.068176299 0.0897827 -0.44457999 7565938
0.070129402 0.089599602 -0.44360399 7631984
0.072204597 0.089599602 -0.44360399 7566191
0.0742798 0.089599602 -0.44360399 7434605
0.076355003 0.089599602 -0.44360399 7303019
0.078430198 0.089599602 -0.44360399 7631984
0.080566399 0.089599602 -0.44360399 7566191
0.082641602 0.089599602 -0.44360399 7763570
0.084716797 0.089599602 -0.44360399 7566191
0.086792 0.089599602 -0.44360399 7566448
0.088867202 0.089599602 -0.44360399 7500655
0.090942398 0.089599602 -0.44360399 7303023
0.093078598 0.089599602 -0.44360399 7238000
0.095153801 0.089599602 -0.44360399 7238000
0.097228996 0.089599602 -0.44360399 7435632
0.099121101 0.089416496 -0.44262701 7369839
0.101196 0.089416496 -0.44262701 7369586
0.103271 0.089416496 -0.44262701 7369586
0.105347 0.089416496 -0.44262701 7500402
0.107422 0.089416496 -0.44262701 7171437
0.109497 0.089416496 -0.44262701 7171437
0.111328 0.089172401 -0.44165 7171690
0.113403 0.089172401 -0.44165 7105897
0.115479 0.089172401 -0.44165 7040104
0.117554 0.089172401 -0.44165 7106667
0.119629 0.089172401 -0.44165 7040874
0.12146 0.088989303 -0.44067401 6777702
0.123535 0.088989303 -0.44067401 6777702
0.12560999 0.088989303 -0.44067401 6975081
0.12768599 0.088989303 -0.44067401 6975081
0.129639 0.088989303 -0.44067401 7106667
0.131714 0.088989303 -0.44067401 7237481
0.133789 0.088989303 -0.44067401 7040102
0.13562 0.088806197 -0.439697 7369067
0.137695 0.088806197 -0.439697 7040104
0.139771 0.088806197 -0.439697 6909288
0.141846 0.088806197 -0.439697 7106667
0.143921 0.088806197 -0.439697 7172460
0.145996 0.088806197 -0.439697 7106667
0.14807101 0.088806197 -0.439697 6976111
0.150024 0.088806197 -0.439697 7041391
0.1521 0.088806197 -0.439697 6909805
0.154175 0.088806197 -0.439697 6844012
0.15625 0.088806197 -0.439697 6646633
0.158325 0.088806197 -0.439697 6974828
0.1604 0.088806197 -0.439697 7040621
0.162109 0.088623002 -0.43847701 6711656
0.164185 0.088623002 -0.43847701 6777451
0.16626 0.088623002 -0.43847701 6974830
0.16833501 0.088623002 -0.43847701 6711658
0.17041001 0.088623002 -0.43847701 6777451
0.171997 0.088378899 -0.4375 7106416
0.174072 0.088378899 -0.4375 7106414
0.176147 0.088378899 -0.4375 6844012
0.178223 0.088378899 -0.4375 6778221
0.180298 0.088378899 -0.4375 6515049
0.182373 0.088378899 -0.4375 6580842
0.18432599 0.088378899 -0.4375 6581355
0.18603501 0.088195801 -0.43652299 6581355
0.18810999 0.088195801 -0.43652299 6712941
0.190063 0.088195801 -0.43652299 6646635
0.192139 0.088195801 -0.43652299 6515049
0.194214 0.088195801 -0.43652299 6646635
0.196289 0.088195801 -0.43652299 6712941
0.198364 0.088195801 -0.43652299 6844527
0.20043901 0.088195801 -0.43652299 6910320
0.202393 0.088195801 -0.43652299 6712941
0.204468 0.088195801 -0.43652299 6647918
0.206543 0.088195801 -0.43652299 6582125
0.208618 0.088195801 -0.43652299 6384746
0.210693 0.088195801 -0.43652299 6778734
0.21264599 0.088195801 -0.43652299 6515560
0.21472199 0.088195801 -0.43652299 6582123
0.21679699 0.088195801 -0.43652299 6384746
0.218872 0.088195801 -0.43652299 6582127
0.220947 0.088195801 -0.43652299 6779504
0.223022 0.088195801 -0.43652299 6712941
0.224976 0.088195801 -0.43652299 6450539
0.227051 0.088195801 -0.43652299 6582125
0.22912601 0.088195801 -0.43652299 6582125
0.23071299 0.088012703 -0.43554699 6253160
0.232666 0.088012703 -0.43554699 6318953
0.234741 0.088012703 -0.43554699 6581353
0.236816 0.088012703 -0.43554699 6449767
0.238892 0.088012703 -0.43554699 6647918
0.240356 0.087768599 -0.43457001 6582127
0.242432 0.087768599 -0.43457001 6450541
0.244385 0.087768599 -0.43457001 6581355
0.24707 0.088012703 -0.43554699 6778219
0.249146 0.088012703 -0.43554699 6515049
0.25097701 0.088012703 -0.43554699 6910320
0.25317401 0.088012703 -0.43554699 6318955
0.25512701 0.088012703 -0.43554699 6187882
0.25732401 0.088012703 -0.43554699 6056296
0.25927699 0.088012703 -0.43554699 6582640
0.26074201 0.087768599 -0.43457001 6384748
0.26269501 0.087768599 -0.43457001 6121576
0.264893 0.087768599 -0.43457001 6122089
0.266846 0.087768599 -0.43457001 6319468
0.26879901 0.087768599 -0.43457001 6319468
0.270996 0.087768599 -0.43457001 6187882
0.27294901 0.087768599 -0.43457001 5989990
0.27514601 0.087768599 -0.43457001 5726818
0.2771 0.087768599 -0.43457001 5989220
0.279053 0.087768599 -0.43457001 5791839
0.28125 0.087768599 -0.43457001 6186084
0.28320301 0.087768599 -0.43457001 6317670
0.28515601 0.087768599 -0.43457001 6317670
0.28735399 0.087768599 -0.43457001 6317670
0.289307 0.087768599 -0.43457001 6317670
0.291504 0.087768599 -0.43457001 6317670
0.293457 0.087768599 -0.43457001 6317670
0.294678 0.087585397 -0.43359399 6317670
0.296875 0.087585397 -0.43359399 6317670
0.29882801 0.087585397 -0.43359399 6317670
0.301025 0.087585397 -0.43359399 6317670
0.302246 0.087402299 -0.43261701 6317670
0.30419901 0.087402299 -0.43261701 6317670
0.30639601 0.087402299 -0.43261701 6317670
0.30835 0.087402299 -0.43261701 6317670
0.31103501 0.087585397 -0.43359399 6317670
0.313232 0.087585397 -0.43359399 6317670
0.31518599 0.087585397 -0.43359399 6317670
0.317139 0.087585397 -0.43359399 6317670
0.319336 0.087585397 -0.43359399 6317670
0.321289 0.087585397 -0.43359399 6317670
0.323975 0.087768599 -0.43457001 6317670
0.32617199 0.087768599 -0.43457001 6317670
0.328125 0.087768599 -0.43457001 6317670
0.330322 0.087768599 -0.43457001 6317670
0.331543 0.087585397 -0.43359399 6317670
0.333496 0.087585397 -0.43359399 6317670
0.335693 0.087585397 -0.43359399 6317670
0.33764601 0.087585397 -0.43359399 6317670
0.3396 0.087585397 -0.43359399 6317670
0.34179699 0.087585397 -0.43359399 6317670
0.343018 0.087402299 -0.43261701 6317670
0.344971 0.087402299 -0.43261701 6317670
0.34692401 0.087402299 -0.43261701 6317670
0.349121 0.087402299 -0.43261701 6317670
0.35107401 0.087402299 -0.43261701 6317670
0.35302699 0.087402299 -0.43261701 6317670
0.35424799 0.087158203 -0.43164101 6317670
0.35644501 0.087158203 -0.43164101 6317670
0.35839799 0.087158203 -0.43164101 6317670
0.36035201 0.087158203 -0.43164101 6317670
0.36254901 0.087158203 -0.43164101 6317670
0.36450201 0.087158203 -0.43164101 6317670
0.36645499 0.087158203 -0.43164101 6317670
0.36840799 0.087158203 -0.43164101 6317670
0.37060499 0.087158203 -0.43164101 6317670
0.37182599 0.086975098 -0.430664 6317670
0.373779 0.086975098 -0.430664 6317670
0.375732 0.086975098 -0.430664 6317670
0.37768599 0.086975098 -0.430664 6317670
0.37988299 0.086975098 -0.430664 6317670
0.381836 0.086975098 -0.430664 6317670
0.383789 0.086975098 -0.430664 6317670
0.385986 0.086975098 -0.430664 6317670
0.38793901 0.086975098 -0.430664 6317670
0.389893 0.086975098 -0.430664 6317670
0.39111301 0.086792 -0.429443 6317670
0.39306599 0.086792 -0.429443 6317670
0.39502001 0.086792 -0.429443 6317670
0.39721701 0.086792 -0.429443 6317670
0.398193 0.086547904 -0.42846701 6317670
0.40014601 0.086547904 -0.42846701 6317670
0.40234399 0.086547904 -0.42846701 6317670
0.40429699 0.086547904 -0.42846701 6316898
0.40625 0.086547904 -0.42846701 6316898
0.40820301 0.086547904 -0.42846701 6316898
0.4104 0.086547904 -0.42846701 6316898
0.41235399 0.086547904 -0.42846701 6316898
0.41332999 0.086364701 -0.42749 6316898
0.41528299 0.086364701 -0.42749 6316898
0.41747999 0.086364701 -0.42749 6316898
0.41943401 0.086364701 -0.42749 6316898
0.42138699 0.086364701 -0.42749 6316898
0.42333999 0.086364701 -0.42749 6316898
-0.350586 0.094055198 -0.476807 8158075
-0.348389 0.094055198 -0.476807 8158332
-0.345947 0.094055198 -0.476807 8158334
-0.34375 0.094055198 -0.476807 8158332
-0.341553 0.094055198 -0.476807 8158332
-0.33935499 0.094055198 -0.476807 8092539
-0.33715799 0.094055198 -0.476807 7961725
-0.33422899 0.0938721 -0.47582999 8093311
-0.33178699 0.0938721 -0.47582999 7895932
-0.32958999 0.0938721 -0.47582999 7896702
-0.32666001 0.093689002 -0.47485399 7896702
-0.32446301 0.093689002 -0.47485399 8028288
-0.32226601 0.093689002 -0.47485399 8357253
-0.320068 0.093689002 -0.47485399 8291460
-0.317871 0.093689002 -0.47485399 7896702
-0.31494099 0.093444802 -0.47363299 7895932
-0.31274399 0.093444802 -0.47363299 8027518
-0.31054699 0.093444802 -0.47363299 8093311
-0.30810499 0.093444802 -0.47363299 8422276
-0.30590799 0.093444802 -0.47363299 8159874
-0.303711 0.093444802 -0.47363299 7962495
-0.30078101 0.093261696 -0.47265601 7566969
-0.29858401 0.093261696 -0.47265601 8027520
-0.29638699 0.093261696 -0.47265601 8093311
-0.29418901 0.093261696 -0.47265601 7961725
-0.29199201 0.093261696 -0.47265601 8093309
-0.28906301 0.093078598 -0.47167999 8093309
-0.286865 0.093078598 -0.47167999 8422274
-0.284668 0.093078598 -0.47167999 8422274
-0.281982 0.0928955 -0.47070301 8290688
-0.27978501 0.0928955 -0.47070301 8423044
-0.27758801 0.0928955 -0.47070301 8356481
-0.27465799 0.092651397 -0.46972701 8421504
-0.272461 0.092651397 -0.46972701 8684676
-0.270264 0.092651397 -0.46972701 8421504
-0.26757801 0.092468299 -0.46875 8487297
-0.26538101 0.092468299 -0.46875 8618883
-0.26318401 0.092468299 -0.46875 8356481
-0.26074201 0.092468299 -0.46875 8553860
-0.25854501 0.092468299 -0.46875 8356481
-0.25585899 0.092285201 -0.46777299 8356481
-0.25366199 0.092285201 -0.46777299 8356481
-0.25146499 0.092285201 -0.46777299 8356481
-0.248779 0.092102103 -0.46679699 8422274
-0.246582 0.092102103 -0.46679699 8356481
-0.244385 0.092102103 -0.46679699 8488067
-0.24218801 0.092102103 -0.46679699 8750469
-0.239502 0.091857903 -0.46557599 8750212
-0.237305 0.091857903 -0.46557599 8750465
-0.235107 0.091857903 -0.46557599 8553086
-0.23291001 0.091857903 -0.46557599 8947844
-0.230225 0.091674797 -0.4646 8684672
-0.228027 0.091674797 -0.4646 8289914
-0.225952 0.091674797 -0.4646 8486523
-0.223267 0.091491699 -0.46362299 8355707
-0.22106899 0.091491699 -0.46362299 8618879
-0.218872 0.091491699 -0.46362299 8619136
-0.216675 0.091491699 -0.46362299 8816258
-0.214478 0.091491699 -0.46362299 8882306
-0.21228001 0.091491699 -0.46362299 8948101
-0.210205 0.091491699 -0.46362299 8750722
-0.20800801 0.091491699 -0.46362299 8684672
-0.20581099 0.091491699 -0.46362299 8487293
-0.203613 0.091491699 -0.46362299 8290171
-0.200928 0.091308601 -0.46264601 8421504
-0.198853 0.091308601 -0.46264601 8618883
-0.19665501 0.091308601 -0.46264601 8488067
-0.19445799 0.091308601 -0.46264601 8290688
-0.192261 0.091308601 -0.46264601 8618883
-0.190063 0.091308601 -0.46264601 8487297
-0.187988 0.091308601 -0.46264601 8487297
-0.185791 0.091308601 -0.46264601 8289918
-0.183594 0.091308601 -0.46264601 8552833
-0.18139599 0.091308601 -0.46264601 8355454
-0.17883299 0.091064498 -0.46167001 8355454
-0.176636 0.091064498 -0.46167001 8355454
-0.174438 0.091064498 -0.46167001 8224121
-0.172363 0.091064498 -0.46167001 8421757
-0.170166 0.091064498 -0.46167001 8290171
-0.167603 0.090881303 -0.460693 8421757
-0.16540501 0.090881303 -0.460693 8290171
-0.16333 0.090881303 -0.460693 8421757
-0.16113301 0.090881303 -0.460693 8290171
-0.15856899 0.090698197 -0.45971701 8290171
-0.15649401 0.090698197 -0.45971701 8487550
-0.15429699 0.090698197 -0.45971701 8487550
-0.151733 0.090515099 -0.45874 8553343
-0.14965799 0.090515099 -0.45874 8290171
-0.147461 0.090515099 -0.45874 8224378
-0.14501999 0.090271004 -0.457764 8289918
-0.142822 0.090271004 -0.457764 8224125
-0.140747 0.090271004 -0.457764 8289918
-0.13855 0.090271004 -0.457764 8421757
-0.136353 0.090271004 -0.457764 8553343
-0.134277 0.090271004 -0.457764 8553343
-0.131836 0.090087898 -0.456543 8290171
-0.129639 0.090087898 -0.456543 8026999
-0.127441 0.090087898 -0.456543 8355707
-0.125366 0.090087898 -0.456543 8487293
-0.12323 0.090087898 -0.456543 8289914
-0.121094 0.090087898 -0.456543 8355707
-0.118652 0.0899048 -0.45556599 8487293
-0.116516 0.0899048 -0.45556599 8224378
-0.11438 0.0899048 -0.45556599 8224121
-0.112244 0.0899048 -0.45556599 8158328
-0.110107 0.0899048 -0.45556599 8158328
-0.107727 0.089721702 -0.45458999 8224121
-0.105591 0.089721702 -0.45458999 8487293
-0.103455 0.089721702 -0.45458999 8158328
-0.101318 0.089721702 -0.45458999 8224121
-0.099182099 0.089721702 -0.45458999 8289914
-0.097045898 0.089721702 -0.45458999 8355707
-0.094909698 0.089721702 -0.45458999 8158328
-0.0927734 0.089721702 -0.45458999 8289914
-0.0906372 0.089721702 -0.45458999 8158328
-0.088256799 0.089477502 -0.45361301 8026742
-0.086120598 0.089477502 -0.45361301 8158328
-0.083984397 0.089477502 -0.45361301 8158328
-0.0818481 0.089477502 -0.45361301 8158328
-0.079711899 0.089477502 -0.45361301 8289914
-0.077575698 0.089477502 -0.45361301 8092535
-0.075500503 0.089477502 -0.45361301 8092535
-0.073364303 0.089477502 -0.45361301 8289144
-0.071227998 0.089477502 -0.45361301 8289144
-0.069091797 0.089477502 -0.45361301 8157558
-0.066955604 0.089477502 -0.45361301 8289144
-0.064636201 0.089294396 -0.45263699 8157558
-0.062560998 0.089294396 -0.45263699 8486523
-0.060424801 0.089294396 -0.45263699 8158328
-0.0582886 0.089294396 -0.45263699 8026742
-0.056152299 0.089294396 -0.45263699 8026742
-0.054016098 0.089294396 -0.45263699 8025972
-0.0519104 0.089294396 -0.45263699 8157556
-0.0496521 0.089111298 -0.45166001 8289142
-0.047546402 0.089111298 -0.45166001 8223349
-0.045410201 0.089111298 -0.45166001 8092533
-0.043304399 0.089111298 -0.45166001 8026740
-0.041168202 0.089111298 -0.45166001 8158326
-0.039032001 0.089111298 -0.45166001 8026740
-0.036834698 0.0889282 -0.45068401 8092533
-0.034729 0.0889282 -0.45068401 7829361
-0.0325928 0.0889282 -0.45068401 7895154
-0.0304871 0.0889282 -0.45068401 8026740
-0.0283661 0.0889282 -0.45068401 7895154
-0.0262451 0.0889282 -0.45068401 7829361
-0.024124101 0.0889282 -0.45068401 7829361
-0.0220032 0.0889282 -0.45068401 7829361
-0.0198822 0.0889282 -0.45068401 7829361
-0.017761201 0.0889282 -0.45068401 7895154
-0.0156403 0.0889282 -0.45068401 8026740
-0.013504 0.088684097 -0.449707 7895154
-0.0113831 0.088684097 -0.449707 7895154
-0.0092697097 0.088684097 -0.449707 7763568
-0.00714111 0.088500999 -0.44872999 7763825
-0.0050315899 0.088500999 -0.44872999 8026997
-0.00292206 0.088500999 -0.44872999 7698032
-0.00081157702 0.088317901 -0.44751 7763825
0.00129318 0.088317901 -0.44751 7829361
0.0033988999 0.088317901 -0.44751 7829361
0.0055007902 0.088317901 -0.44751 7763568
0.0076065101 0.088317901 -0.44751 7763568
0.0096893301 0.088134803 -0.44653299 7895154
0.0117874 0.088134803 -0.44653299 8092533
0.0138931 0.088134803 -0.44653299 7697775
0.0159912 0.088134803 -0.44653299 7631982
0.0180817 0.088134803 -0.44653299 7631982
0.0201874 0.088134803 -0.44653299 7566189
0.0222931 0.088134803 -0.44653299 7697775
0.0243835 0.088134803 -0.44653299 7631982
0.026489301 0.088134803 -0.44653299 7697775
0.0285339 0.087890603 -0.445557 8026740
0.030624401 0.087890603 -0.445557 7697775
0.032714799 0.087890603 -0.445557 7697777
0.034820601 0.087890603 -0.445557 7632241
0.0368958 0.087890603 -0.445557 7829620
0.039001498 0.087890603 -0.445557 7566191
0.0411072 0.087890603 -0.445557 7763570
0.043182399 0.087890603 -0.445557 7566191
0.045288101 0.087890603 -0.445557 7631984
0.047393799 0.087890603 -0.445557 7763570
0.049469002 0.087890603 -0.445557 7763570
0.0515747 0.087890603 -0.445557 7631984
0.053558301 0.087707497 -0.44457999 7631984
0.0556335 0.087707497 -0.44457999 7631984
0.057739299 0.087707497 -0.44457999 7763570
0.059814502 0.087707497 -0.44457999 7697777
0.0619202 0.087707497 -0.44457999 7566191
0.063964799 0.087707497 -0.44457999 7631984
0.066101097 0.087707497 -0.44457999 7434605
0.067993201 0.087524399 -0.44360399 7829110
0.070129402 0.087524399 -0.44360399 7697524
0.072204597 0.087524399 -0.44360399 7697524
0.0742798 0.087524399 -0.44360399 7631731
0.076355003 0.087524399 -0.44360399 7697524
0.078430198 0.087524399 -0.44360399 7631731
0.080566399 0.087524399 -0.44360399 7763317
0.082641602 0.087524399 -0.44360399 7763317
0.084716797 0.087524399 -0.44360399 7500402
0.086792 0.087524399 -0.44360399 7631988
0.088867202 0.087524399 -0.44360399 7566965
0.090942398 0.087524399 -0.44360399 7501174
0.093078598 0.087524399 -0.44360399 7435381
0.095153801 0.087524399 -0.44360399 7370356
0.097228996 0.087524399 -0.44360399 7436149
0.099121101 0.087341301 -0.44262701 7369586
0.101196 0.087341301 -0.44262701 7566965
0.103271 0.087341301 -0.44262701 7632758
0.105347 0.087341301 -0.44262701 7435379
0.107422 0.087341301 -0.44262701 7435381
0.109253 0.087097198 -0.44165 7172209
0.111328 0.087097198 -0.44165 7369586
0.113403 0.087097198 -0.44165 7369586
0.115479 0.087097198 -0.44165 7369586
0.117554 0.087097198 -0.44165 7238000
0.119385 0.0869141 -0.44067401 7501172
0.12146 0.0869141 -0.44067401 7107184
0.123535 0.0869141 -0.44067401 7107184
0.12560999 0.0869141 -0.44067401 7501942
0.12768599 0.0869141 -0.44067401 6975598
0.129639 0.0869141 -0.44067401 7041391
0.131714 0.0869141 -0.44067401 7106414
0.133545 0.086731002 -0.439697 7172207
0.13562 0.086731002 -0.439697 7107184
0.137695 0.086731002 -0.439697 6909805
0.139771 0.086731002 -0.439697 6909805
0.141846 0.086731002 -0.439697 6975598
0.143921 0.086731002 -0.439697 6844012
0.145996 0.086731002 -0.439697 6778219
0.14807101 0.086731002 -0.439697 6449767
0.150024 0.086731002 -0.439697 6712939
0.1521 0.086731002 -0.439697 7041391
0.154175 0.086731002 -0.439697 6844012
0.15625 0.086731002 -0.439697 6909805
0.158325 0.086731002 -0.439697 7041391
0.160034 0.086547904 -0.43847701 6909805
0.162109 0.086547904 -0.43847701 6975598
0.164185 0.086547904 -0.43847701 6909805
0.16626 0.086547904 -0.43847701 6844012
0.16833501 0.086547904 -0.43847701 6975600
0.16992199 0.086303703 -0.4375 6909807
0.171997 0.086303703 -0.4375 6844014
0.174072 0.086303703 -0.4375 6646635
0.176147 0.086303703 -0.4375 6646633
0.178223 0.086303703 -0.4375 6844014
0.180298 0.086303703 -0.4375 6580842
0.182373 0.086303703 -0.4375 6646635
0.18396001 0.086120598 -0.43652299 6515562
0.18603501 0.086120598 -0.43652299 6515562
0.18810999 0.086120598 -0.43652299 6383978
0.190063 0.086120598 -0.43652299 6383978
0.192139 0.086120598 -0.43652299 6449771
0.194214 0.086120598 -0.43652299 6120806
0.196289 0.086120598 -0.43652299 6384748
0.198364 0.086120598 -0.43652299 6450541
0.20043901 0.086120598 -0.43652299 6712943
0.202393 0.086120598 -0.43652299 6515564
0.204468 0.086120598 -0.43652299 6252392
0.206543 0.086120598 -0.43652299 6318955
0.208618 0.086120598 -0.43652299 6384748
0.210693 0.086120598 -0.43652299 6383978
0.21264599 0.086120598 -0.43652299 6515564
0.21472199 0.086120598 -0.43652299 6383976
0.21679699 0.086120598 -0.43652299 6318953
0.218872 0.086120598 -0.43652299 6450541
0.220947 0.086120598 -0.43652299 6450541
0.223022 0.086120598 -0.43652299 6384748
0.224976 0.086120598 -0.43652299 6450541
0.227051 0.086120598 -0.43652299 6582125
0.22912601 0.086120598 -0.43652299 6384748
0.23071299 0.0859375 -0.43554699 6187369
0.232666 0.0859375 -0.43554699 6449771
0.234741 0.0859375 -0.43554699 6252392
0.236816 0.0859375 -0.43554699 6318185
0.238892 0.0859375 -0.43554699 6449771
0.24084499 0.0859375 -0.43554699 6121576
0.242432 0.085754402 -0.43457001 6187369
0.244385 0.085754402 -0.43457001 6318953
0.24707 0.0859375 -0.43554699 6450539
0.249146 0.0859375 -0.43554699 6384746
0.25097701 0.0859375 -0.43554699 6384746
0.25317401 0.0859375 -0.43554699 6582127
0.25512701 0.0859375 -0.43554699 6582127
0.25732401 0.0859375 -0.43554699 6977398
0.25927699 0.0859375 -0.43554699 6648433
0.26074201 0.085754402 -0.43457001 6516845
0.26269501 0.085754402 -0.43457001 5727329
0.264893 0.085754402 -0.43457001 5924710
0.266846 0.085754402 -0.43457001 6319468
0.26879901 0.085754402 -0.43457001 5858917
0.270996 0.085754402 -0.43457001 5793124
0.27294901 0.085754402 -0.43457001 6056296
0.27514601 0.085754402 -0.43457001 5727331
0.2771 0.085754402 -0.43457001 6318955
0.279053 0.085754402 -0.43457001 6253162
0.28125 0.085754402 -0.43457001 6384746
0.28320301 0.085754402 -0.43457001 6383976
0.28515601 0.085754402 -0.43457001 5989988
0.28735399 0.085754402 -0.43457001 5989988
0.289307 0.085754402 -0.43457001 5989988
0.291504 0.085754402 -0.43457001 5989988
0.292725 0.085571297 -0.43359399 5989988
0.294678 0.085571297 -0.43359399 5989988
0.296875 0.085571297 -0.43359399 5989988
0.29882801 0.085571297 -0.43359399 5989988
0.301025 0.085571297 -0.43359399 5989988
0.30297899 0.085571297 -0.43359399 5989988
0.304932 0.085571297 -0.43359399 6120804
0.307129 0.085571297 -0.43359399 6120804
0.309082 0.085571297 -0.43359399 6120804
0.31103501 0.085571297 -0.43359399 6120804
0.313232 0.085571297 -0.43359399 6120804
0.31518599 0.085571297 -0.43359399 6120804
0.317139 0.085571297 -0.43359399 6120804
0.319336 0.085571297 -0.43359399 6120804
0.32202101 0.085754402 -0.43457001 6120804
0.323975 0.085754402 -0.43457001 6120804
0.32617199 0.085754402 -0.43457001 6120804
0.328125 0.085754402 -0.43457001 6120804
0.330322 0.085754402 -0.43457001 6120804
0.331543 0.085571297 -0.43359399 6120804
0.333496 0.085571297 -0.43359399 6120804
0.335693 0.085571297 -0.43359399 6120804
0.33764601 0.085571297 -0.43359399 6120804
0.3396 0.085571297 -0.43359399 6120804
0.34179699 0.085571297 -0.43359399 6120804
0.343018 0.085327096 -0.43261701 6120804
0.344971 0.085327096 -0.43261701 6120804
0.34692401 0.085327096 -0.43261701 6120804
0.349121 0.085327096 -0.43261701 6120804
0.35107401 0.085327096 -0.43261701 6120804
0.35302699 0.085327096 -0.43261701 6120804
0.355225 0.085327096 -0.43261701 6120804
0.35644501 0.085143998 -0.43164101 6120804
0.35839799 0.085143998 -0.43164101 6120804
0.36035201 0.085143998 -0.43164101 6120804
0.36254901 0.085143998 -0.43164101 6120804
0.36450201 0.085143998 -0.43164101 6120804
0.36645499 0.085143998 -0.43164101 6120804
0.36840799 0.085143998 -0.43164101 6120804
0.37060499 0.085143998 -0.43164101 6120804
0.37182599 0.0849609 -0.430664 6120804
0.373779 0.0849609 -0.430664 6120804
0.375732 0.0849609 -0.430664 6120804
0.37768599 0.0849609 -0.430664 6120804
0.37988299 0.0849609 -0.430664 6120804
0.381836 0.0849609 -0.430664 6120804
0.383057 0.084777802 -0.429443 6120804
0.38501 0.084777802 -0.429443 6120804
0.38696301 0.084777802 -0.429443 6120804
0.38916001 0.084777802 -0.429443 6120804
0.39111301 0.084777802 -0.429443 6120804
0.39306599 0.084777802 -0.429443 6120804
0.39502001 0.084777802 -0.429443 6120804
0.39721701 0.084777802 -0.429443 6120804
0.398193 0.084533699 -0.42846701 6120804
0.40014601 0.084533699 -0.42846701 6120804
0.40234399 0.084533699 -0.42846701 6120804
0.40429699 0.084533699 -0.42846701 6120804
0.40625 0.084533699 -0.42846701 6120804
0.40722701 0.084350601 -0.42749 6120804
0.40942401 0.084350601 -0.42749 6120804
0.41137701 0.084350601 -0.42749 6120804
0.41332999 0.084350601 -0.42749 6120804
0.41528299 0.084350601 -0.42749 6120804
0.41747999 0.084350601 -0.42749 6120804
0.41943401 0.084350601 -0.42749 6120804
0.42138699 0.084350601 -0.42749 6120804
0.42333999 0.084350601 -0.42749 6120804
-0.350586 0.091796897 -0.476807 8158332
-0.348389 0.091796897 -0.476807 8289918
-0.345947 0.091796897 -0.476807 8290690
-0.34375 0.091796897 -0.476807 7895932
-0.341553 0.091796897 -0.476807 8159104
-0.33935499 0.091796897 -0.476807 7961725
-0.33715799 0.091796897 -0.476807 8488069
-0.33422899 0.091613799 -0.47582999 7961727
-0.33178699 0.091613799 -0.47582999 7961725
-0.32958999 0.091613799 -0.47582999 8027516
-0.32666001 0.091430701 -0.47485399 7895930
-0.32446301 0.091430701 -0.47485399 7895930
-0.32226601 0.091430701 -0.47485399 7895930
-0.320068 0.091430701 -0.47485399 8093309
-0.317871 0.091430701 -0.47485399 8027516
-0.31494099 0.091247603 -0.47363299 8290690
-0.31274399 0.091247603 -0.47363299 8290692
-0.31054699 0.091247603 -0.47363299 7962497
-0.30810499 0.091247603 -0.47363299 8160389
-0.30590799 0.091247603 -0.47363299 7963010
-0.303711 0.091247603 -0.47363299 7831170
-0.301514 0.091247603 -0.47363299 7831170
-0.29858401 0.091064498 -0.47265601 7501946
-0.29638699 0.091064498 -0.47265601 7962495
-0.29418901 0.091064498 -0.47265601 8225667
-0.29199201 0.091064498 -0.47265601 7961725
-0.28979501 0.091064498 -0.47265601 8422276
-0.286865 0.090820298 -0.47167999 8159874
-0.284668 0.090820298 -0.47167999 8028288
-0.282471 0.090820298 -0.47167999 7897215
-0.27978501 0.0906372 -0.47070301 7962495
-0.27758801 0.0906372 -0.47070301 8422276
-0.27465799 0.090454102 -0.46972701 8619655
-0.272461 0.090454102 -0.46972701 8619653
-0.270264 0.090454102 -0.46972701 8619653
-0.26757801 0.090271004 -0.46875 8422274
-0.26538101 0.090271004 -0.46875 8751239
-0.26318401 0.090271004 -0.46875 8422274
-0.26074201 0.090271004 -0.46875 8423044
-0.258057 0.090087898 -0.46777299 8225665
-0.25585899 0.090087898 -0.46777299 8488067
-0.25366199 0.090087898 -0.46777299 8751239
-0.25146499 0.090087898 -0.46777299 8488067
-0.248779 0.0899048 -0.46679699 8553860
-0.246582 0.0899048 -0.46679699 8619136
-0.244385 0.0899048 -0.46679699 8751492
-0.241699 0.0896606 -0.46557599 8553343
-0.239502 0.0896606 -0.46557599 8947844
-0.237305 0.0896606 -0.46557599 8684672
-0.235107 0.0896606 -0.46557599 8421757
-0.23242199 0.089477502 -0.4646 8684929
-0.230225 0.089477502 -0.4646 8882308
-0.228027 0.089477502 -0.4646 8882308
-0.225952 0.089477502 -0.4646 8684929
-0.223267 0.089294396 -0.46362299 8619136
-0.22106899 0.089294396 -0.46362299 8750722
-0.218872 0.089294396 -0.46362299 8684929
-0.216675 0.089294396 -0.46362299 8882308
-0.214478 0.089294396 -0.46362299 8553343
-0.21228001 0.089294396 -0.46362299 8487550
-0.210205 0.089294396 -0.46362299 8619136
-0.20800801 0.089294396 -0.46362299 8553086
-0.20581099 0.089294396 -0.46362299 8092792
-0.203613 0.089294396 -0.46362299 8289918
-0.201416 0.089294396 -0.46362299 8421504
-0.199219 0.089294396 -0.46362299 8553090
-0.19665501 0.089111298 -0.46264601 8553090
-0.19445799 0.089111298 -0.46264601 8487297
-0.192261 0.089111298 -0.46264601 8882308
-0.190063 0.089111298 -0.46264601 8618879
-0.187988 0.089111298 -0.46264601 9013894
-0.185791 0.089111298 -0.46264601 8750722
-0.183594 0.089111298 -0.46264601 8619136
-0.18139599 0.089111298 -0.46264601 8684676
-0.17883299 0.0889282 -0.46167001 8487297
-0.176636 0.0889282 -0.46167001 8553343
-0.174438 0.0889282 -0.46167001 8553086
-0.172363 0.0889282 -0.46167001 8553343
-0.170166 0.0889282 -0.46167001 8553343
-0.167603 0.088745102 -0.460693 8290171
-0.16540501 0.088745102 -0.460693 8882308
-0.16333 0.088745102 -0.460693 8487550
-0.16113301 0.088745102 -0.460693 8619136
-0.15856899 0.088500999 -0.45971701 8750463
-0.15649401 0.088500999 -0.45971701 8553084
-0.15429699 0.088500999 -0.45971701 8487291
-0.151733 0.088317901 -0.45874 8289914
-0.14965799 0.088317901 -0.45874 8618879
-0.147461 0.088317901 -0.45874 8618879
-0.14501999 0.088134803 -0.457764 8684672
-0.142822 0.088134803 -0.457764 8618879
-0.140747 0.088134803 -0.457764 8487293
-0.138184 0.087951697 -0.456543 8487293
-0.136108 0.087951697 -0.456543 8224121
-0.133911 0.087951697 -0.456543 8158328
-0.131836 0.087951697 -0.456543 8224121
-0.129639 0.087951697 -0.456543 8224121
-0.127441 0.087951697 -0.456543 8289914
-0.125366 0.087951697 -0.456543 8289914
-0.12323 0.087951697 -0.456543 8224121
-0.120789 0.087768599 -0.45556599 8750465
-0.118652 0.087768599 -0.45556599 8289914
-0.116516 0.087768599 -0.45556599 8618879
-0.11438 0.087768599 -0.45556599 8618879
-0.112244 0.087768599 -0.45556599 8816258
-0.109863 0.087585397 -0.45458999 8684672
-0.107727 0.087585397 -0.45458999 8816258
-0.105591 0.087585397 -0.45458999 8618879
-0.103455 0.087585397 -0.45458999 8553086
-0.101318 0.087585397 -0.45458999 8355707
-0.099182099 0.087585397 -0.45458999 8223351
-0.097045898 0.087585397 -0.45458999 8224121
-0.094909698 0.087585397 -0.45458999 8487293
-0.0927734 0.087585397 -0.45458999 8289914
-0.0906372 0.087585397 -0.45458999 8487293
-0.088256799 0.087341301 -0.45361301 8355707
-0.086120598 0.087341301 -0.45361301 8487293
-0.083984397 0.087341301 -0.45361301 8487293
-0.0818481 0.087341301 -0.45361301 8224121
-0.079711899 0.087341301 -0.45361301 8157558
-0.077575698 0.087341301 -0.45361301 8289144
-0.075500503 0.087341301 -0.45361301 8289144
-0.073364303 0.087341301 -0.45361301 8025972
-0.071227998 0.087341301 -0.45361301 8157558
-0.069091797 0.087341301 -0.45361301 8223351
-0.066772498 0.087158203 -0.45263699 7960179
-0.064636201 0.087158203 -0.45263699 8157558
-0.062560998 0.087158203 -0.45263699 7894386
-0.060424801 0.087158203 -0.45263699 7762800
-0.0582886 0.087158203 -0.45263699 8025972
-0.056152299 0.087158203 -0.45263699 8355707
-0.054016098 0.087158203 -0.45263699 8092535
-0.0519104 0.087158203 -0.45263699 8158328
-0.0496521 0.086975098 -0.45166001 8289914
-0.047546402 0.086975098 -0.45166001 8224121
-0.045410201 0.086975098 -0.45166001 8289914
-0.043304399 0.086975098 -0.45166001 8224121
-0.041168202 0.086975098 -0.45166001 8289914
-0.039032001 0.086975098 -0.45166001 8158326
-0.036834698 0.086792 -0.45068401 8158326
-0.034729 0.086792 -0.45068401 8224119
-0.0325928 0.086792 -0.45068401 8618877
-0.0304871 0.086792 -0.45068401 8092533
-0.0283661 0.086792 -0.45068401 7894384
-0.0262451 0.086792 -0.45068401 7763568
-0.024124101 0.086792 -0.45068401 7829361
-0.0220032 0.086792 -0.45068401 7631982
-0.0198822 0.086792 -0.45068401 7960177
-0.017761201 0.086792 -0.45068401 7631982
-0.0156174 0.086608902 -0.449707 7631982
-0.013504 0.086608902 -0.449707 7631982
-0.0113831 0.086608902 -0.449707 7631982
-0.0092697097 0.086608902 -0.449707 7303017
-0.00714111 0.086425804 -0.44872999 7631982
-0.0050315899 0.086425804 -0.44872999 7631982
-0.00291634 0.086181603 -0.44751 7566189
-0.00081157702 0.086181603 -0.44751 7631982
0.00129318 0.086181603 -0.44751 7631982
0.0033988999 0.086181603 -0.44751 7697775
0.0055007902 0.086181603 -0.44751 7631982
0.0075912499 0.085998498 -0.44653299 7697005
0.0096893301 0.085998498 -0.44653299 7434603
0.0117874 0.085998498 -0.44653299 7368810
0.0138931 0.085998498 -0.44653299 7631982
0.0159912 0.085998498 -0.44653299 7829361
0.0180817 0.085998498 -0.44653299 7697777
0.0201874 0.085998498 -0.44653299 7631984
0.0222931 0.085998498 -0.44653299 7631984
0.0243835 0.085998498 -0.44653299 7631984
0.026489301 0.085998498 -0.44653299 7566189
0.028595001 0.085998498 -0.44653299 7631982
0.030624401 0.0858154 -0.445557 7434603
0.032714799 0.0858154 -0.445557 7631982
0.034820601 0.0858154 -0.445557 7566446
0.0368958 0.0858154 -0.445557 7435632
0.039001498 0.0858154 -0.445557 7500655
0.0411072 0.0858154 -0.445557 7698034
0.043182399 0.0858154 -0.445557 7632241
0.045288101 0.0858154 -0.445557 7829620
0.047393799 0.0858154 -0.445557 7829620
0.049469002 0.0858154 -0.445557 7829620
0.0515747 0.0858154 -0.445557 7698034
0.053680401 0.0858154 -0.445557 8158328
0.0556335 0.085632302 -0.44457999 8026742
0.057739299 0.085632302 -0.44457999 8947844
0.059814502 0.085632302 -0.44457999 7697777
0.0619202 0.085632302 -0.44457999 8026999
0.063964799 0.085632302 -0.44457999 7566448
0.066101097 0.085632302 -0.44457999 7829620
0.067993201 0.085449196 -0.44360399 7698034
0.070129402 0.085449196 -0.44360399 7434605
0.072204597 0.085449196 -0.44360399 7434605
0.0742798 0.085449196 -0.44360399 7434605
0.076355003 0.085449196 -0.44360399 7434605
0.078430198 0.085449196 -0.44360399 7434605
0.080566399 0.085449196 -0.44360399 7434352
0.082641602 0.085449196 -0.44360399 7500402
0.084716797 0.085449196 -0.44360399 7368816
0.086792 0.085449196 -0.44360399 7763574
0.088867202 0.085449196 -0.44360399 7368816
0.090942398 0.085449196 -0.44360399 7238000
0.093078598 0.085449196 -0.44360399 7501172
0.095153801 0.085449196 -0.44360399 7238000
0.096984901 0.085266098 -0.44262701 7435379
0.099121101 0.085266098 -0.44262701 7369586
0.101196 0.085266098 -0.44262701 7369586
0.103271 0.085266098 -0.44262701 7369586
0.105347 0.085266098 -0.44262701 7369586
0.107422 0.085266098 -0.44262701 7435379
0.109253 0.085022002 -0.44165 7369586
0.111328 0.085022002 -0.44165 7107184
0.113403 0.085022002 -0.44165 7107186
0.115479 0.085022002 -0.44165 7107186
0.11731 0.084838897 -0.44067401 7041393
0.119385 0.084838897 -0.44067401 7107186
0.12146 0.084838897 -0.44067401 7238772
0.123535 0.084838897 -0.44067401 7304563
0.12560999 0.084838897 -0.44067401 6976111
0.12768599 0.084838897 -0.44067401 6976113
0.129639 0.084838897 -0.44067401 7041906
0.13146999 0.084655799 -0.439697 7173492
0.133545 0.084655799 -0.439697 7041391
0.13562 0.084655799 -0.439697 7370356
0.137695 0.084655799 -0.439697 6778219
0.139771 0.084655799 -0.439697 6646633
0.141846 0.084655799 -0.439697 6515047
0.143921 0.084655799 -0.439697 6778219
0.14563 0.084472701 -0.43847701 6581606
0.147705 0.084472701 -0.43847701 6515813
0.14978001 0.084472701 -0.43847701 6581353
0.1521 0.084655799 -0.439697 6449767
0.153809 0.084472701 -0.43847701 6909807
0.155884 0.084472701 -0.43847701 6449256
0.157959 0.084472701 -0.43847701 6581355
0.160034 0.084472701 -0.43847701 6515562
0.162109 0.084472701 -0.43847701 6581357
0.164185 0.084472701 -0.43847701 6646635
0.16626 0.084472701 -0.43847701 6515049
0.167969 0.084289603 -0.4375 6646635
0.16992199 0.084289603 -0.4375 6712939
0.171997 0.084289603 -0.4375 6778219
0.174072 0.084289603 -0.4375 6712939
0.176147 0.084289603 -0.4375 6581355
0.178223 0.084289603 -0.4375 6515049
0.180298 0.084289603 -0.4375 6646635
0.181885 0.084106401 -0.43652299 6646635
0.18396001 0.084106401 -0.43652299 6515049
0.18603501 0.084106401 -0.43652299 6449769
0.18810999 0.084106401 -0.43652299 6515564
0.190063 0.084106401 -0.43652299 6515564
0.192139 0.084106401 -0.43652299 6515564
0.194214 0.084106401 -0.43652299 6383978
0.196289 0.084106401 -0.43652299 6383978
0.198364 0.084106401 -0.43652299 6581357
0.20043901 0.084106401 -0.43652299 6449769
0.202393 0.084106401 -0.43652299 6449769
0.204468 0.084106401 -0.43652299 6515562
0.206543 0.084106401 -0.43652299 6252390
0.208618 0.084106401 -0.43652299 6515562
0.210693 0.084106401 -0.43652299 6383978
0.21264599 0.084106401 -0.43652299 6449771
0.21472199 0.084106401 -0.43652299 6383976
0.21679699 0.084106401 -0.43652299 6449769
0.218872 0.084106401 -0.43652299 6449771
0.220947 0.084106401 -0.43652299 6449771
0.223022 0.084106401 -0.43652299 6450541
0.224976 0.084106401 -0.43652299 6581357
0.227051 0.084106401 -0.43652299 6449771
0.22912601 0.084106401 -0.43652299 6515564
0.23120099 0.084106401 -0.43652299 6383978
0.232666 0.083862297 -0.43554699 6449771
0.234741 0.083862297 -0.43554699 6253162
0.236816 0.083862297 -0.43554699 6121576
0.238892 0.083862297 -0.43554699 6384748
0.24084499 0.083862297 -0.43554699 6120806
0.24292 0.083862297 -0.43554699 6187369
0.244995 0.083862297 -0.43554699 6582127
0.24707 0.083862297 -0.43554699 6976115
0.249146 0.083862297 -0.43554699 6976113
0.25097701 0.083862297 -0.43554699 6383976
0.25317401 0.083862297 -0.43554699 6318185
0.25512701 0.083862297 -0.43554699 6450541
0.25732401 0.083862297 -0.43554699 5989990
0.25927699 0.083862297 -0.43554699 6121576
0.26122999 0.083862297 -0.43554699 6121574
0.26269501 0.083679199 -0.43457001 6121574
0.264893 0.083679199 -0.43457001 6384748
0.266846 0.083679199 -0.43457001 6056296
0.26879901 0.083679199 -0.43457001 5793124
0.270996 0.083679199 -0.43457001 6187882
0.27294901 0.083679199 -0.43457001 6516847
0.27514601 0.083679199 -0.43457001 6319214
0.2771 0.083679199 -0.43457001 6056810
0.279053 0.083679199 -0.43457001 5925224
0.28125 0.083679199 -0.43457001 6253673
0.28320301 0.083679199 -0.43457001 6515562
0.28515601 0.083679199 -0.43457001 6318953
0.28735399 0.083679199 -0.43457001 6318953
0.289307 0.083679199 -0.43457001 6318953
0.29077101 0.083496101 -0.43359399 6318953
0.292725 0.083496101 -0.43359399 6318953
0.294678 0.083496101 -0.43359399 6318953
0.296875 0.083496101 -0.43359399 6318953
0.29882801 0.083496101 -0.43359399 6318953
0.301025 0.083496101 -0.43359399 6318953
0.30297899 0.083496101 -0.43359399 6318953
0.304932 0.083496101 -0.43359399 6318953
0.307129 0.083496101 -0.43359399 6318953
0.309082 0.083496101 -0.43359399 6318953
0.31103501 0.083496101 -0.43359399 6318953
0.313232 0.083496101 -0.43359399 6318953
0.31518599 0.083496101 -0.43359399 6318953
0.317139 0.083496101 -0.43359399 6318953
0.320068 0.083679199 -0.43457001 6318953
0.32202101 0.083679199 -0.43457001 6318953
0.323975 0.083679199 -0.43457001 6318953
0.32617199 0.083679199 -0.43457001 6318953
0.328125 0.083679199 -0.43457001 6318953
0.329346 0.083496101 -0.43359399 6318953
0.331543 0.083496101 -0.43359399 6318953
0.333496 0.083496101 -0.43359399 6318953
0.335693 0.083496101 -0.43359399 6318953
0.33764601 0.083496101 -0.43359399 6318953
0.3396 0.083496101 -0.43359399 6318953
0.34082001 0.083313003 -0.43261701 6318953
0.343018 0.083313003 -0.43261701 6318953
0.344971 0.083313003 -0.43261701 6318953
0.34692401 0.083313003 -0.43261701 6318953
0.349121 0.083313003 -0.43261701 6318953
0.35107401 0.083313003 -0.43261701 6318953
0.35302699 0.083313003 -0.43261701 6318953
0.355225 0.083313003 -0.43261701 6318953
0.35644501 0.083129898 -0.43164101 6318953
0.35839799 0.083129898 -0.43164101 6318953
0.36035201 0.083129898 -0.43164101 6318953
0.36254901 0.083129898 -0.43164101 6318953
0.36450201 0.083129898 -0.43164101 6318953
0.36645499 0.083129898 -0.43164101 6318953
0.36840799 0.083129898 -0.43164101 6318953
0.37060499 0.083129898 -0.43164101 6318953
0.37182599 0.0829468 -0.430664 6318953
0.373779 0.0829468 -0.430664 6318953
