# .PCD v0.7 - Point Cloud Data file format
VERSION 0.7
FIELDS x y z
SIZE 4 4 4
TYPE F F F
COUNT 1 1 1
WIDTH 1429
HEIGHT 1
VIEWPOINT 0 0 0 1 0 0 0
POINTS 1429
DATA ascii
0.027664 0.0033332 -0.40235001
0.027664 0.0032385001 -0.40235001
0.027664 0.0031438 -0.40235001
0.027664 0.0030491999 -0.40235001
0.027665 0.0029545 -0.40235001
0.027665 0.0028599 -0.40235001
0.027665 0.0027652001 -0.40235001
0.027665 0.0026705 -0.40235001
0.027665 0.0025758999 -0.40235001
0.027665 0.0024812 -0.40235001
0.027665 0.0023866 -0.40235001
0.027665 0.0022919001 -0.40235001
0.027665 0.0021972 -0.40235001
0.027664 0.0021025999 -0.40235001
0.027664 0.0020079 -0.40235001
0.027664 0.0019133 -0.40235001
0.027664 0.0018187 -0.40233999
0.027664 0.0018187 -0.40233999
0.027664 0.001724 -0.40233999
0.027664 0.0016294 -0.40233999
0.027664 0.0015348 -0.40233999
0.027664 0.0014402 -0.40233999
0.027663 0.0013456 -0.40233001
0.027663 0.001251 -0.40233001
0.027663 0.0011564 -0.40233001
0.027663 0.0010617001 -0.40233001
0.027663 0.00096714002 -0.40233001
0.027663 0.00087254 -0.40233001
0.027663 0.00077793002 -0.40232
0.027663 0.00068331999 -0.40232
0.027663 0.00058871001 -0.40232
0.027663 0.00049409998 -0.40232
0.027663 0.00039947001 -0.40233001
0.027663 0.00030484999 -0.40233001
0.027663 0.00021021999 -0.40233001
0.027663 0.00011557 -0.40233001
0.027664 2.0927e-05 -0.40233999
0.027664 -7.3730997e-05 -0.40233999
0.027664 -7.3730997e-05 -0.40233999
0.027665 -0.0001684 -0.40235001
0.027665 -0.00026306999 -0.40235999
0.027666001 -0.00035774999 -0.40237001
0.027666001 -0.00045244 -0.40237001
0.027667001 -0.00054713001 -0.40237999
0.027667999 -0.00064181001 -0.40239
0.027667999 -0.00073650002 -0.40239999
0.027669 -0.00083118997 -0.40239999
0.027669 -0.00092586002 -0.40241
0.02767 -0.0010205 -0.40241
0.02767 -0.0011152 -0.40242001
0.02767 -0.0012099 -0.40242001
0.02767 -0.0013045 -0.40242001
0.02767 -0.0013990999 -0.40242001
0.02767 -0.0014937 -0.40241
0.027669 -0.0015883 -0.40239999
0.027667999 -0.0016829 -0.40239
0.027667001 -0.0017774 -0.40237999
0.027666001 -0.0018720001 -0.40235999
0.027664 -0.0019665 -0.40233999
0.027664 -0.0019665 -0.40233999
0.027662 -0.0020610001 -0.40232
0.027659999 -0.0021554001 -0.40228999
0.027658001 -0.0022497999 -0.40226001
0.027655 -0.0023441999 -0.40222999
0.027651999 -0.0024385999 -0.40219
0.027649 -0.0025329001 -0.40215001
0.027644999 -0.0026272 -0.40211001
0.027642 -0.0027214 -0.40206
0.027638 -0.0028156 -0.40200999
0.027634 -0.0029098 -0.40195999
0.027629999 -0.0030038999 -0.40191001
0.027626 -0.0030980001 -0.40184999
0.027620999 -0.0031921 -0.40180001
0.027617 -0.0032861 -0.40174001
0.027612001 -0.0033799999 -0.40167999
0.027607 -0.0034739 -0.40162
0.027603 -0.0035677999 -0.40156001
0.027597999 -0.0036615999 -0.40149
0.027593 -0.0037553001 -0.40143001
0.027588001 -0.003849 -0.40136999
0.027588001 -0.003849 -0.40136999
0.027582999 -0.0039427001 -0.40130001
0.027578 -0.0040362999 -0.40123999
0.027573001 -0.0041298 -0.40116999
0.027567999 -0.0042233998 -0.40110999
0.027563 -0.0043168999 -0.40105
0.027558001 -0.0044104001 -0.40099001
0.027554 -0.0045039002 -0.40092999
0.027549 -0.0045973002 -0.40087
0.027544999 -0.0046907999 -0.40081
0.02754 -0.0047843 -0.40075001
0.027535999 -0.0048778998 -0.4007
0.027533 -0.0049713999 -0.40064999
0.027528999 -0.0050650002 -0.40061
0.027526001 -0.0051587 -0.40055999
0.027522 -0.0052523999 -0.40052
0.027519999 -0.0053462 -0.40048999
0.027517 -0.00544 -0.40046
0.027515 -0.0055339001 -0.40042999
0.027512999 -0.0056278999 -0.40041
0.027512001 -0.0057219998 -0.40039
0.027512001 -0.0057219998 -0.40039
0.027511001 -0.0058162999 -0.40037999
0.02751 -0.0059105 -0.40037
0.027509 -0.0060049002 -0.40037
0.027509 -0.0060993 -0.40037
0.027509 -0.0061937999 -0.40037
0.02751 -0.0062882998 -0.40037999
0.02751 -0.0063828002 -0.40039
0.027511001 -0.0064773001 -0.40040001
0.027511001 -0.0065718 -0.40041
0.027512001 -0.0066662999 -0.40042001
0.027512999 -0.0067607998 -0.40042999
0.027512999 -0.0068550999 -0.40042999
0.027513999 -0.0069495002 -0.40044001
0.027513999 -0.0070437002 -0.40044999
0.027513999 -0.0071378001 -0.40044999
0.027515 -0.0072317999 -0.40044999
0.027513999 -0.0073257 -0.40044001
0.027513999 -0.0074195 -0.40042999
0.027512999 -0.0075130998 -0.40041
0.027512001 -0.0076064998 -0.40039
0.027512001 -0.0076064998 -0.40039
0.02751 -0.0076998002 -0.40035999
0.027508 -0.0077928002 -0.40033001
0.027505999 -0.0078857997 -0.40029001
0.027503001 -0.0079786004 -0.40024999
0.0275 -0.0080712996 -0.40020001
0.027496999 -0.0081639001 -0.40015
0.027493 -0.0082564 -0.40009999
0.027489999 -0.0083488002 -0.40004
0.027486 -0.0084413001 -0.39998001
0.027482999 -0.0085337004 -0.39991999
0.027479 -0.0086260997 -0.39985999
0.027474999 -0.0087184999 -0.39980999
0.027472001 -0.0088109002 -0.39974999
0.027468 -0.0089034 -0.39969
0.027465001 -0.0089959996 -0.39963999
0.027461 -0.0090886001 -0.39958
0.027458001 -0.0091813998 -0.39954001
0.027455 -0.0092743002 -0.39949
0.027453 -0.0093673002 -0.39945
0.027450999 -0.0094605004 -0.39941001
0.027450999 -0.0094605004 -0.39941001
0.027449001 -0.0095538003 -0.39938
0.027447 -0.0096472995 -0.39936
0.027446 -0.0097409999 -0.39934
0.027445 -0.0098347999 -0.39932001
0.027443999 -0.0099286996 -0.39930999
0.027443999 -0.010023 -0.39930001
0.027442999 -0.010117 -0.39930001
0.027442999 -0.010211 -0.39930001
0.027442999 -0.010305 -0.39930001
0.027443999 -0.0104 -0.39930001
0.027443999 -0.010494 -0.39930999
0.027445 -0.010589 -0.39932001
0.027445 -0.010683 -0.39932999
0.027446 -0.010778 -0.39934
0.027447 -0.010872 -0.39934999
0.027447 -0.010967 -0.39936
0.027448 -0.011062 -0.39938
0.027449001 -0.011156 -0.39939001
0.027450001 -0.01125 -0.3994
0.027450999 -0.011345 -0.39941001
0.027450999 -0.011345 -0.39941001
0.027450999 -0.011439 -0.39941999
0.027451999 -0.011534 -0.39943001
0.027451999 -0.011628 -0.39943999
0.027453 -0.011722 -0.39945
0.027453 -0.011816 -0.39945999
0.027454 -0.01191 -0.39945999
0.027454 -0.012004 -0.39945999
0.027454 -0.012098 -0.39947
0.027454 -0.012192 -0.39947
0.027454 -0.012286 -0.39947
0.027454 -0.01238 -0.39947
0.027454 -0.012473 -0.39947
0.027454 -0.012567 -0.39947
0.027454 -0.012661 -0.39945999
0.027453 -0.012754 -0.39945999
0.027453 -0.012848 -0.39945
0.027451999 -0.012941 -0.39943999
0.027451999 -0.013035 -0.39943001
0.027450999 -0.013128 -0.39941999
0.027450999 -0.013222 -0.39941001
0.027450999 -0.013222 -0.39941001
0.027450001 -0.013315 -0.3994
0.027449001 -0.013408 -0.39939001
0.027448 -0.013502 -0.39938
0.027447 -0.013595 -0.39936
0.027447 -0.013688 -0.39934999
0.027446 -0.013782 -0.39934
0.027445 -0.013875 -0.39932999
0.027443999 -0.013969 -0.39932001
0.027443999 -0.014062 -0.39930999
0.027442999 -0.014156 -0.39930001
0.027442999 -0.01425 -0.39930001
0.027442999 -0.014343 -0.39929
0.027442999 -0.014437 -0.39930001
0.027442999 -0.014531 -0.39930001
0.027443999 -0.014625 -0.39930999
0.027445 -0.01472 -0.39932001
0.027446 -0.014814 -0.39934
0.027447 -0.014909 -0.39936
0.027449001 -0.015004 -0.39938
0.027450999 -0.015099 -0.39941001
0.027450999 -0.015099 -0.39941001
0.027453 -0.015194 -0.39945
0.027456 -0.015289 -0.39949
0.027458999 -0.015385 -0.39954001
0.027462 -0.01548 -0.39958999
0.027465001 -0.015576 -0.39963999
0.027469 -0.015672 -0.39969999
0.027472001 -0.015768001 -0.39974999
0.027476 -0.015864 -0.39980999
0.027480001 -0.01596 -0.39987001
0.027482999 -0.016055999 -0.39993
0.027487 -0.016152 -0.39998999
0.027491 -0.016248999 -0.40005001
0.027494 -0.016345 -0.40009999
0.027497999 -0.016441001 -0.40016001
0.027501 -0.016535999 -0.40020999
0.027503001 -0.016632 -0.40024999
0.027505999 -0.016728001 -0.4003
0.027508 -0.016822999 -0.40033001
0.02751 -0.016918 -0.40037
0.027512001 -0.017014001 -0.40039
0.027512001 -0.017014001 -0.40039
0.027512999 -0.017108001 -0.40041
0.027512999 -0.017202999 -0.40042001
0.027512999 -0.017298 -0.40042999
0.027512999 -0.017392 -0.40042999
0.027512999 -0.017486 -0.40042999
0.027512999 -0.017580001 -0.40042999
0.027512001 -0.017673999 -0.40042001
0.027511001 -0.017769 -0.40041
0.02751 -0.017863 -0.40040001
0.02751 -0.017957 -0.40039
0.027509 -0.018051 -0.40037
0.027508 -0.018145001 -0.40035999
0.027508 -0.018239999 -0.40035
0.027507 -0.018333999 -0.40035
0.027507 -0.018429 -0.40033999
0.027507 -0.018524 -0.40033999
0.027508 -0.018619001 -0.40035
0.027509 -0.018714 -0.40035999
0.02751 -0.01881 -0.40037
0.027512001 -0.018905999 -0.40039
0.027512001 -0.018905999 -0.40039
0.027513999 -0.019002 -0.40042001
0.027517 -0.019098001 -0.40044999
0.027519999 -0.019195 -0.40048999
0.027523 -0.019292001 -0.40053999
0.027527001 -0.019389 -0.40059
0.027532 -0.019486999 -0.40064001
0.027535999 -0.019584 -0.40068999
0.027541 -0.019681999 -0.40075001
0.027544999 -0.019779 -0.40081
0.027550001 -0.019877 -0.40087
0.027555 -0.019974001 -0.40092999
0.027558999 -0.020072 -0.40099001
0.027564 -0.020168999 -0.40105
0.027567999 -0.020266 -0.40110999
0.027572 -0.020362999 -0.40116
0.027575999 -0.02046 -0.40121001
0.02758 -0.020555999 -0.40125999
0.027582999 -0.020652 -0.40130001
0.027586 -0.020748001 -0.40134001
0.027588001 -0.020842999 -0.40136999
0.027588001 -0.020842999 -0.40136999
0.027589999 -0.020939 -0.40138999
0.027590999 -0.021033 -0.40141001
0.027592 -0.021127 -0.40142
0.027592 -0.021221001 -0.40143001
0.027592 -0.021314999 -0.40143001
0.027592 -0.021408999 -0.40143001
0.027592 -0.021501999 -0.40143001
0.027590999 -0.021594999 -0.40142
0.027589999 -0.021689 -0.40141001
0.027589999 -0.021782 -0.4014
0.027589001 -0.021875 -0.40138999
0.027588001 -0.021968 -0.40138
0.027587 -0.022061 -0.40136999
0.027586 -0.022155 -0.40136001
0.027586 -0.022248 -0.40134999
0.027586 -0.022342 -0.40134999
0.027586 -0.022436 -0.40134999
0.027586 -0.022531001 -0.40134999
0.027587 -0.022624999 -0.40136001
0.027588001 -0.02272 -0.40136999
0.027588001 -0.02272 -0.40136999
0.027589001 -0.022816001 -0.40138
0.027592 -0.022911999 -0.4014
0.027594 -0.023008 -0.40143001
0.027597001 -0.023104001 -0.40145999
0.0276 -0.023201 -0.40149999
0.027603 -0.023298001 -0.40154001
0.027607 -0.023396 -0.40158001
0.027611 -0.023494 -0.40162
0.027615 -0.023591001 -0.40167001
0.027619001 -0.023689 -0.40173
0.027624 -0.023788 -0.40178001
0.027628001 -0.023886001 -0.40184
0.027633 -0.023984 -0.40189999
0.027638 -0.024083 -0.40195999
0.027642 -0.024181001 -0.40202001
0.027647 -0.02428 -0.40208
0.027651001 -0.024378 -0.40215001
0.027656 -0.024476999 -0.40221
0.027659999 -0.024575001 -0.40228
0.027664 -0.024674 -0.40233999
0.027664 -0.024674 -0.40233999
0.027667999 -0.024772 -0.40241
0.027672 -0.024870001 -0.40246999
0.027674999 -0.024968 -0.40254
0.027679 -0.025065999 -0.40259999
0.027682001 -0.025163 -0.40267
0.027685 -0.025261 -0.40272999
0.027688 -0.025358999 -0.40279999
0.027690999 -0.025456 -0.40285999
0.027694 -0.025553999 -0.40292001
0.027697001 -0.025651 -0.40298
0.027698999 -0.025749 -0.40303999
0.027702 -0.025846001 -0.40310001
0.027705001 -0.025944 -0.40316001
0.027708 -0.026040999 -0.40322
0.02771 -0.026139 -0.40327999
0.027713001 -0.026236 -0.40334001
0.027716 -0.026334001 -0.4034
0.027719 -0.026431 -0.40345001
0.027721999 -0.026528999 -0.40351
0.027725 -0.026627 -0.40356001
0.027725 -0.026627 -0.40356001
0.027728001 -0.026724 -0.40362
0.027732 -0.026822001 -0.40367001
0.027735 -0.02692 -0.40371999
0.027739 -0.027017999 -0.40377
0.027743001 -0.027116001 -0.40382001
0.027747 -0.027215 -0.40386999
0.02775 -0.027313 -0.40391999
0.027753999 -0.027411001 -0.40397
0.027758 -0.027509 -0.40402001
0.027762 -0.027608 -0.40406999
0.027766 -0.027705999 -0.40412
0.02777 -0.027805001 -0.40415999
0.027774001 -0.027904 -0.40421
0.027778 -0.028001999 -0.40426001
0.027782001 -0.028100999 -0.40430999
0.027786 -0.028200001 -0.40435001
0.027790001 -0.028298 -0.40439999
0.027794 -0.028396999 -0.40445
0.027798001 -0.028496001 -0.40448999
0.027801 -0.028595001 -0.40454
0.027801 -0.028595001 -0.40454
0.027805001 -0.028694 -0.40459001
0.027809 -0.028793 -0.40463999
0.027812 -0.028891999 -0.40468001
0.027814999 -0.028991001 -0.40472999
0.027819 -0.02909 -0.40478
0.027822001 -0.029189 -0.40483001
0.027825 -0.029287999 -0.40487999
0.027828 -0.029386999 -0.40493
0.027830999 -0.029487001 -0.40496999
0.027834 -0.029586 -0.40502
0.027837001 -0.029685 -0.40507001
0.02784 -0.029784 -0.40511999
0.027843 -0.029883999 -0.40516999
0.027845999 -0.029983001 -0.40522
0.027849 -0.030082 -0.40527001
0.027851 -0.030181 -0.40531999
0.027853999 -0.030281 -0.40537
0.027857 -0.030379999 -0.40542001
0.027860001 -0.030479001 -0.40547001
0.027861999 -0.030579001 -0.40551999
0.029556001 0.011284 -0.40233999
0.029555 0.011188 -0.40232
0.029554 0.011093 -0.4023
0.029553 0.010997 -0.40228
0.029552 0.010902 -0.40226001
0.029550999 0.010807 -0.40224001
0.029549999 0.010711 -0.40222001
0.029549001 0.010616 -0.40221
0.029549001 0.010521 -0.40220001
0.029548001 0.010425 -0.40219
0.029548001 0.01033 -0.40217999
0.029548001 0.010235 -0.40217999
0.029548001 0.01014 -0.40217999
0.029548001 0.010045 -0.40217999
0.029548001 0.0099504003 -0.40219
0.029549001 0.0098556997 -0.40220001
0.029549999 0.0097612003 -0.40222001
0.029550999 0.0096666999 -0.40224001
0.029552 0.0095723998 -0.40226999
0.029554 0.0094782002 -0.4023
0.029556001 0.0093842 -0.40233999
0.029556001 0.0093842 -0.40233999
0.029558999 0.0092903003 -0.40239
0.029561 0.0091965003 -0.40244001
0.029564001 0.0091028996 -0.4025
0.029568 0.0090094004 -0.40256
0.029571 0.0089159999 -0.40263
0.029575 0.0088226004 -0.40270001
0.029578 0.0087293005 -0.40277001
0.029581999 0.0086361002 -0.40283999
0.029586 0.0085429 -0.40292001
0.029588999 0.0084496001 -0.40299001
0.029593 0.0083563998 -0.40305999
0.029596999 0.0082631996 -0.40312999
0.0296 0.0081700003 -0.4032
0.029603001 0.0080767004 -0.40327001
0.029606 0.0079832999 -0.40333
0.029609 0.0078897998 -0.40338999
0.029611999 0.0077963001 -0.40344
0.029614 0.0077026999 -0.40349001
0.029616 0.0076088998 -0.40353
0.029617 0.0075149001 -0.40356001
0.029617 0.0075149001 -0.40356001
0.029618001 0.0074208998 -0.40358999
0.029619001 0.0073266998 -0.40360999
0.029619001 0.0072323 -0.40362
0.029619001 0.0071378001 -0.40362999
0.029619001 0.0070432001 -0.40362999
0.029619001 0.0069484999 -0.40362
0.029618001 0.0068537998 -0.40362
0.029617 0.0067588999 -0.40360999
0.029616 0.006664 -0.40360001
0.029616 0.006569 -0.40358999
0.029615 0.0064739999 -0.40357
0.029614 0.0063789999 -0.40356001
0.029614 0.0062838998 -0.40355
0.029612999 0.0061889002 -0.40353999
0.029612999 0.0060938001 -0.40353
0.029612999 0.0059988 -0.40353
0.029614 0.0059038 -0.40353
0.029614 0.0058088 -0.40353999
0.029616 0.0057139001 -0.40355
0.029617 0.0056190002 -0.40356001
0.029617 0.0056190002 -0.40356001
0.029619001 0.0055243 -0.40358999
0.029622 0.0054295999 -0.40362
0.029625 0.0053349002 -0.40366
0.029627999 0.0052403002 -0.40369999
0.029632 0.0051457998 -0.40373999
0.029635999 0.0050512999 -0.40379
0.02964 0.0049568 -0.40384999
0.029645 0.0048623998 -0.4039
0.029649001 0.004768 -0.40395999
0.029654 0.0046736002 -0.40402001
0.029658001 0.0045791999 -0.40408
0.029663 0.0044848002 -0.40414
0.029666999 0.0043903999 -0.40419999
0.029672001 0.0042960001 -0.40426001
0.029676 0.0042015999 -0.40430999
0.029680001 0.0041071 -0.40437001
0.029684 0.0040126001 -0.40441999
0.029688001 0.0039181001 -0.40446001
0.029691 0.0038234999 -0.40450001
0.029694 0.0037289001 -0.40454
0.029694 0.0037289001 -0.40454
0.029696001 0.0036342 -0.40457001
0.029697999 0.0035393999 -0.40459999
0.0297 0.0034445999 -0.40461999
0.029701 0.0033497999 -0.40463001
0.029702 0.0032549 -0.40465
0.029702 0.0031599 -0.40465
0.029703001 0.0030648999 -0.40465999
0.029703001 0.0029698999 -0.40465999
0.029702 0.0028748999 -0.40465999
0.029702 0.0027798 -0.40465
0.029702 0.0026847001 -0.40465
0.029701 0.0025895 -0.40463999
0.0297 0.0024943999 -0.40463001
0.029699 0.0023992001 -0.40461001
0.029697999 0.0023041 -0.40459999
0.029696999 0.0022088999 -0.40459001
0.029696001 0.0021136999 -0.40458
0.029695 0.0020184999 -0.40456
0.029694 0.0019234 -0.40454999
0.029694 0.0018282 -0.40454
0.029694 0.0018282 -0.40454
0.029693 0.001733 -0.40452999
0.029692 0.0016379 -0.40452
0.029692 0.0015428 -0.40452
0.029691 0.0014476 -0.40450999
0.029691 0.0013525001 -0.40450001
0.029689999 0.0012574 -0.40450001
0.029689999 0.0011623 -0.40450001
0.029689999 0.0010672 -0.40450001
0.029689999 0.00097209 -0.40450001
0.029689999 0.00087698997 -0.40450001
0.029689999 0.00078189 -0.40450001
0.029689999 0.00068679999 -0.40450001
0.029689999 0.00059170002 -0.40450001
0.029691 0.0004966 -0.40450001
0.029691 0.0004015 -0.40450999
0.029691 0.00030638999 -0.40450999
0.029692 0.00021128 -0.40452
0.029692 0.00011617 -0.40452999
0.029693 2.1043001e-05 -0.40452999
0.029694 -7.4089003e-05 -0.40454
0.029694 -7.4089003e-05 -0.40454
0.029694 -0.00016923 -0.40454999
0.029695 -0.00026438001 -0.40456
0.029696001 -0.00035953001 -0.40457001
0.029696999 -0.00045468 -0.40457001
0.029696999 -0.00054983998 -0.40458
0.029697999 -0.00064500002 -0.40459001
0.029699 -0.00074014999 -0.40459999
0.029699 -0.00083530002 -0.40459999
0.0297 -0.00093043997 -0.40461001
0.0297 -0.0010256 -0.40461001
0.0297 -0.0011207 -0.40461999
0.0297 -0.0012157999 -0.40461999
0.0297 -0.0013109 -0.40461001
0.0297 -0.001406 -0.40461001
0.0297 -0.001501 -0.40461001
0.029699 -0.0015961 -0.40459999
0.029697999 -0.0016911 -0.40459001
0.029696999 -0.0017861 -0.40458
0.029695 -0.0018811 -0.40456
0.029694 -0.0019759999 -0.40454
0.029694 -0.0019759999 -0.40454
0.029692 -0.0020709001 -0.40452
0.029689001 -0.0021658 -0.40448999
0.029687 -0.0022606 -0.40446001
0.029684 -0.0023554999 -0.40443
0.029680001 -0.0024502999 -0.40439999
0.029677 -0.0025450001 -0.40436
0.029673999 -0.0026397 -0.40432
0.02967 -0.0027344001 -0.40426999
0.029665999 -0.0028291 -0.40423
0.029662 -0.0029237 -0.40417999
0.029658001 -0.0030183 -0.40413001
0.029653 -0.0031129001 -0.40406999
0.029649001 -0.0032074 -0.40402001
0.029645 -0.0033019001 -0.40395999
0.02964 -0.0033962999 -0.4039
0.029634999 -0.0034908 -0.40382999
0.029631 -0.0035850999 -0.40377
0.029626001 -0.0036795 -0.40369999
0.029622 -0.0037738001 -0.40362999
0.029617 -0.0038681 -0.40356001
0.029617 -0.0038681 -0.40356001
0.029612999 -0.0039622998 -0.40349001
0.029608 -0.0040565999 -0.40342
0.029603999 -0.0041507999 -0.40334001
0.0296 -0.0042448998 -0.40327001
0.029596001 -0.0043390999 -0.4032
0.029592 -0.0044332002 -0.40312001
0.029588001 -0.0045273001 -0.40305001
0.029584 -0.0046215001 -0.40298
0.029580999 -0.0047156001 -0.40290999
0.029578 -0.0048097 -0.40283999
0.029573999 -0.0049039 -0.40277001
0.029572001 -0.0049981 -0.40270999
0.029569 -0.0050923 -0.40265
0.029565999 -0.0051865 -0.40259001
0.029564001 -0.0052807 -0.40254
0.029562 -0.0053750002 -0.40248999
0.02956 -0.0054692999 -0.40244001
0.029558999 -0.0055637001 -0.40239999
0.029557001 -0.0056580999 -0.40237001
0.029556001 -0.0057525998 -0.40233999
0.029556001 -0.0057525998 -0.40233999
0.029556001 -0.0058471002 -0.40232
0.029555 -0.0059417002 -0.40231001
0.029555 -0.0060363002 -0.4023
0.029555 -0.0061308998 -0.40228999
0.029555 -0.0062255999 -0.40228999
0.029556001 -0.0063204002 -0.40228999
0.029556001 -0.0064150998 -0.4023
0.029557001 -0.0065098 -0.4023
0.029557001 -0.0066046002 -0.40231001
0.029557999 -0.0066992999 -0.40232
0.029558999 -0.006794 -0.40233001
0.029558999 -0.0068887002 -0.40233999
0.029558999 -0.0069833999 -0.40235001
0.02956 -0.0070779999 -0.40235999
0.02956 -0.0071725999 -0.40235999
0.02956 -0.0072670998 -0.40237001
0.029558999 -0.0073616002 -0.40237001
0.029558999 -0.007456 -0.40235999
0.029557999 -0.0075504002 -0.40235999
0.029556001 -0.0076445998 -0.40233999
0.029556001 -0.0076445998 -0.40233999
0.029555 -0.0077387998 -0.40233001
0.029553 -0.0078328997 -0.4023
0.029549999 -0.0079268999 -0.40228
0.029548001 -0.0080209002 -0.40224001
0.029545 -0.0081147002 -0.40221
0.029541001 -0.0082085002 -0.40217
0.029538 -0.0083021997 -0.40211999
0.029534001 -0.0083958004 -0.40208
0.02953 -0.0084894001 -0.40202999
0.029526001 -0.0085827997 -0.40197
0.029522 -0.0086762002 -0.40191999
0.029518001 -0.0087695997 -0.40186
0.029513 -0.0088628 -0.40180001
0.029509 -0.0089560002 -0.40174001
0.029503999 -0.0090490999 -0.40167999
0.029499 -0.0091422005 -0.40162
0.029494001 -0.0092351995 -0.40154999
0.02949 -0.0093281996 -0.40149
0.029485 -0.0094210003 -0.40143001
0.029479999 -0.0095138 -0.40136999
0.029479999 -0.0095138 -0.40136999
0.029475 -0.0096065998 -0.40131
0.029471001 -0.0096992999 -0.40123999
0.029465999 -0.0097920001 -0.40119001
0.029461 -0.0098845996 -0.40112999
0.029456999 -0.0099772001 -0.40107
0.029453 -0.01007 -0.40101001
0.029448001 -0.010162 -0.40096
0.029444 -0.010255 -0.40090001
0.029440001 -0.010348 -0.40085
0.029436 -0.01044 -0.40079999
0.029432001 -0.010533 -0.40075001
0.029428 -0.010625 -0.4007
0.029425001 -0.010718 -0.40066001
0.029421 -0.010811 -0.40061
0.029417999 -0.010903 -0.40057001
0.029415 -0.010996 -0.40053001
0.029412 -0.011089 -0.40048999
0.029409001 -0.011182 -0.40046
0.029406 -0.011275 -0.40042001
0.029403999 -0.011368 -0.40039
0.029403999 -0.011368 -0.40039
0.029401001 -0.011461 -0.40035999
0.029399 -0.011554 -0.40033999
0.029397 -0.011647 -0.40031001
0.029395999 -0.011741 -0.40029001
0.029394001 -0.011834 -0.40026999
0.029393001 -0.011928 -0.40026
0.029392 -0.012022 -0.40024
0.029391 -0.012116 -0.40022999
0.029391 -0.01221 -0.40022999
0.029391 -0.012304 -0.40022001
0.029391 -0.012398 -0.40022001
0.029391 -0.012492 -0.40022999
0.029391 -0.012587 -0.40024
0.029392 -0.012681 -0.40024999
0.029393001 -0.012776 -0.40026
0.029394999 -0.012871 -0.40028
0.029397 -0.012966 -0.4003
0.029399 -0.013061 -0.40033001
0.029401001 -0.013157 -0.40035999
0.029403999 -0.013252 -0.40039
0.029403999 -0.013252 -0.40039
0.029407 -0.013348 -0.40042999
0.029410001 -0.013444 -0.40046999
0.029414 -0.01354 -0.40052
0.029417001 -0.013636 -0.40057001
0.029421 -0.013732 -0.40062001
0.029425999 -0.013829 -0.40066999
0.02943 -0.013925 -0.40072
0.029433999 -0.014021 -0.40077999
0.029439 -0.014118 -0.40084001
0.029443 -0.014214 -0.40088999
0.029447 -0.014311 -0.40095001
0.029452 -0.014407 -0.40099999
0.029456001 -0.014503 -0.40105999
0.02946 -0.0146 -0.40110999
0.029464001 -0.014696 -0.40116
0.029468 -0.014792 -0.40121001
0.029471001 -0.014888 -0.40125
0.029474 -0.014984 -0.40130001
0.029477 -0.015079 -0.40132999
0.029479999 -0.015175 -0.40136999
0.029479999 -0.015175 -0.40136999
0.029482 -0.01527 -0.4014
0.029484 -0.015365 -0.40142
0.029486001 -0.01546 -0.40143999
0.029487001 -0.015555 -0.40145001
0.029487999 -0.01565 -0.40147001
0.029488999 -0.015744001 -0.40147001
0.029488999 -0.015838001 -0.40147999
0.029488999 -0.015933 -0.40147999
0.029488999 -0.016027 -0.40147999
0.029488999 -0.016121 -0.40147999
0.029487999 -0.016215 -0.40147001
0.029487999 -0.016309001 -0.40145999
0.029487001 -0.016403001 -0.40145999
0.029486001 -0.016496001 -0.40143999
0.029485 -0.016589999 -0.40143001
0.029484 -0.016683999 -0.40142
0.029483 -0.016778 -0.40141001
0.029482 -0.016872 -0.40138999
0.029480999 -0.016965 -0.40138
0.029479999 -0.017059 -0.40136999
0.029479999 -0.017059 -0.40136999
0.029479001 -0.017153 -0.40134999
0.029478 -0.017247001 -0.40134001
0.029477 -0.017340999 -0.40132999
0.029476 -0.017434999 -0.40132001
0.029475 -0.017529 -0.40131
0.029474 -0.017623 -0.40130001
0.029472999 -0.017718 -0.40129
0.029472999 -0.017812001 -0.40129
0.029472001 -0.017906001 -0.40127999
0.029472001 -0.018000999 -0.40127999
0.029472001 -0.018096 -0.40127999
0.029472001 -0.01819 -0.40127999
0.029472001 -0.018285001 -0.40127999
0.029472999 -0.018379999 -0.40127999
0.029472999 -0.018475 -0.40129
0.029474 -0.01857 -0.40130001
0.029475 -0.018665001 -0.40131
0.029477 -0.018759999 -0.40132999
0.029478 -0.018856 -0.40134999
0.029479999 -0.018951001 -0.40136999
0.029479999 -0.018951001 -0.40136999
0.029482 -0.019047 -0.40138999
0.029485 -0.019143 -0.40142
0.029487001 -0.019238999 -0.40145001
0.02949 -0.019335 -0.40147999
0.029493 -0.019431001 -0.40152001
0.029496999 -0.019528 -0.40154999
0.0295 -0.019624 -0.40158999
0.029503999 -0.019721 -0.40164
0.029508 -0.019817 -0.40167999
0.029511999 -0.019913999 -0.40173
0.029516 -0.020011 -0.40178001
0.029521 -0.020107999 -0.40184
0.029525001 -0.020205 -0.40189001
0.029529 -0.020303 -0.40195
0.029534001 -0.020400001 -0.40200999
0.029538 -0.020498 -0.40206999
0.029542999 -0.020595999 -0.40213999
0.029547 -0.020693 -0.40221
0.029552 -0.020791 -0.40226999
0.029556001 -0.020888999 -0.40233999
0.029556001 -0.020888999 -0.40233999
0.029561 -0.020987 -0.40242001
0.029565001 -0.021086 -0.40248999
0.029569 -0.021183999 -0.40256
0.029573999 -0.021282 -0.40264001
0.029578 -0.021381 -0.40270999
0.029581999 -0.021478999 -0.40279001
0.029585 -0.021577001 -0.40285999
0.029588999 -0.021676 -0.40292999
0.029593 -0.021774 -0.403
0.029596001 -0.021872001 -0.40307
0.029599 -0.02197 -0.40314001
0.029602 -0.022067999 -0.4032
0.029604999 -0.022166001 -0.40325999
0.029608 -0.022263 -0.40332001
0.029610001 -0.022360001 -0.40336999
0.029611999 -0.022457 -0.40342
0.029614 -0.022554001 -0.40347001
0.029615 -0.02265 -0.40349999
0.029616 -0.022747001 -0.40353999
0.029617 -0.022841999 -0.40356001
0.029617 -0.022841999 -0.40356001
0.029618001 -0.022938 -0.40358001
0.029618001 -0.023033001 -0.40360001
0.029618001 -0.023127999 -0.40360999
0.029618001 -0.023221999 -0.40360999
0.029618001 -0.023317 -0.40360999
0.029617 -0.023411 -0.40360999
0.029617 -0.023505 -0.40360999
0.029616 -0.023599001 -0.40360001
0.029616 -0.023693001 -0.40358999
0.029615 -0.023786999 -0.40358001
0.029614 -0.023881 -0.40357
0.029614 -0.023975 -0.40356001
0.029614 -0.024069 -0.40355
0.029612999 -0.024163 -0.40353999
0.029612999 -0.024258001 -0.40353999
0.029612999 -0.024352999 -0.40353
0.029614 -0.024448 -0.40353
0.029615 -0.024543 -0.40353999
0.029616 -0.024638001 -0.40355
0.029617 -0.024734 -0.40356001
0.029617 -0.024734 -0.40356001
0.029619001 -0.024831001 -0.40358001
0.029620999 -0.024928 -0.40360999
0.029624 -0.025025001 -0.40364
0.029627001 -0.025123 -0.40368
0.02963 -0.025219999 -0.40371999
0.029634001 -0.025319001 -0.40375999
0.029637 -0.025417 -0.40380999
0.029641001 -0.025514999 -0.40386
0.029646 -0.025614001 -0.40391001
0.029650001 -0.025713 -0.40397
0.029654 -0.025812 -0.40402001
0.029658999 -0.025911 -0.40408
0.029663 -0.026009999 -0.40414
0.029668 -0.026109001 -0.40419999
0.029672001 -0.026209 -0.40426001
0.029677 -0.026308 -0.40432
0.029681001 -0.026407 -0.40437999
0.029685 -0.026505999 -0.40443
0.029689999 -0.026604 -0.40448999
0.029694 -0.026703 -0.40454
0.029694 -0.026703 -0.40454
0.029696999 -0.026800999 -0.40459001
0.029701 -0.026899001 -0.40463999
0.029704999 -0.026998 -0.40469
0.029708 -0.027094999 -0.40472999
0.029712001 -0.027193001 -0.40476999
0.029715 -0.027291 -0.40482
0.029718 -0.027388999 -0.40485999
0.029720999 -0.027487 -0.40490001
0.029725 -0.027585 -0.40494001
0.029727999 -0.027682001 -0.40498999
0.029732 -0.02778 -0.40503001
0.029735001 -0.027877999 -0.40507001
0.029739 -0.027977001 -0.40511999
0.029742001 -0.028075 -0.40516999
0.029746 -0.028174 -0.40522
0.029751001 -0.028272999 -0.40527001
0.029755 -0.028372001 -0.40533
0.029759999 -0.028471 -0.40538999
0.029765001 -0.028571 -0.40544999
0.02977 -0.028671 -0.40551999
0.02977 -0.028671 -0.40551999
0.029774999 -0.028772 -0.40559
0.029781001 -0.028873 -0.40566
0.029788001 -0.028974 -0.40573999
0.029794 -0.029076001 -0.40583
0.029801 -0.029177999 -0.40590999
0.029808 -0.029279999 -0.40599999
0.029815 -0.029382 -0.40608999
0.029821999 -0.029485 -0.40619001
0.029829999 -0.029588001 -0.40628999
0.029837999 -0.029691 -0.40639001
0.029846 -0.029795 -0.40649
0.029854 -0.029898001 -0.40659001
0.029862 -0.030002 -0.40669999
0.029871 -0.030106001 -0.40680999
0.029879 -0.03021 -0.40691999
0.029888 -0.030314 -0.40702999
0.029896 -0.030417999 -0.40713999
0.029905001 -0.030523 -0.40724999
0.029913999 -0.030626999 -0.40735999
0.029921999 -0.030731 -0.40746999
0.031585999 0.0075340001 -0.40454
0.031592 0.0074399002 -0.40461001
0.031598002 0.0073457998 -0.40467
0.031603001 0.0072515998 -0.40472999
0.031608999 0.0071574999 -0.4048
0.031615 0.0070632999 -0.40485999
0.031621002 0.0069690999 -0.40492001
0.031626001 0.0068748998 -0.40498
0.031631 0.0067806002 -0.40504
0.031637002 0.0066864002 -0.40509999
0.031642001 0.0065919999 -0.40515
0.031645998 0.0064976998 -0.4052
0.031651001 0.0064033 -0.40525001
0.031654999 0.0063088001 -0.40529999
0.031659 0.0062143002 -0.40533999
0.031663001 0.0061197001 -0.40538001
0.031667002 0.0060251001 -0.40540999
0.03167 0.0059302999 -0.40544999
0.031672999 0.0058356002 -0.40548
0.031675 0.0057406998 -0.40549999
0.031677 0.0056456998 -0.40551999
0.031677 0.0056456998 -0.40551999
0.031679001 0.0055506998 -0.40553001
0.031679999 0.0054556001 -0.40553999
0.031681001 0.0053603998 -0.40555
0.031682 0.0052652 -0.40555
0.031682 0.0051699001 -0.40555
0.031682 0.0050746002 -0.40555
0.031682 0.0049792002 -0.40553999
0.031682 0.0048837001 -0.40553999
0.031681001 0.0047883 -0.40553001
0.031681001 0.0046927999 -0.40551999
0.031679999 0.0045973002 -0.40551999
0.031679999 0.0045018001 -0.40551001
0.031679001 0.0044062999 -0.40549999
0.031677999 0.0043108002 -0.40549999
0.031677999 0.0042153001 -0.40549001
0.031677 0.0041199001 -0.40549001
0.031677 0.0040243999 -0.40549001
0.031677 0.0039291 -0.40549999
0.031677 0.0038337 -0.40551001
0.031677 0.0037384001 -0.40551999
0.031677 0.0037384001 -0.40551999
0.031677999 0.0036432 -0.40553001
0.031677999 0.003548 -0.40555999
0.031679999 0.0034528 -0.40558001
0.031681001 0.0033577001 -0.40561
0.031682 0.0032625999 -0.40564001
0.031684 0.0031675999 -0.40568
0.031686001 0.0030725 -0.40572
0.031688999 0.0029775 -0.40575999
0.031691 0.0028824999 -0.40581
0.031693999 0.0027876 -0.40586001
0.031697001 0.0026926 -0.40590999
0.031700999 0.0025976 -0.40597001
0.031705 0.0025026 -0.40603
0.031709 0.0024075999 -0.40608999
0.031713001 0.0023125 -0.40615001
0.031716999 0.0022173999 -0.40621999
0.031722002 0.0021223 -0.40628001
0.031727001 0.0020272001 -0.40634999
0.031732999 0.001932 -0.40641999
0.031738002 0.0018368 -0.40649
0.031738002 0.0018368 -0.40649
0.031744 0.0017415 -0.40656999
0.031750001 0.0016461 -0.40663999
0.031757001 0.0015508001 -0.40671
0.031762999 0.0014553 -0.40678999
0.031769 0.0013599 -0.40685999
0.031776 0.0012643 -0.40693
0.031782001 0.0011688001 -0.40700001
0.031787999 0.0010732 -0.40706
0.031794 0.00097762002 -0.40713
0.031800002 0.00088200002 -0.40719
0.031805001 0.00078636 -0.40724
0.031810001 0.00069070002 -0.40729001
0.031815 0.00059503998 -0.40733999
0.031819001 0.00049935997 -0.40738001
0.031823002 0.00040367999 -0.40741
0.031826001 0.00030801 -0.40744001
0.031828001 0.00021232999 -0.40746
0.031829 0.00011667 -0.40746999
0.031830002 2.1014001e-05 -0.40748
0.031830002 -7.4625001e-05 -0.40746999
0.031830002 -7.4625001e-05 -0.40746999
0.031829 -0.00017025 -0.40746
0.031826999 -0.00026584999 -0.40742999
0.031824 -0.00036144 -0.40740001
0.031821001 -0.00045701 -0.40735999
0.031817 -0.00055257999 -0.40731999
0.031812001 -0.00064813002 -0.40727001
0.031807002 -0.00074366998 -0.40722001
0.031801999 -0.00083919999 -0.40716001
0.031796999 -0.00093472999 -0.40709999
0.031791002 -0.0010303 -0.40704
0.031785 -0.0011258 -0.40698001
0.031778999 -0.0012213 -0.40691
0.031773001 -0.0013168 -0.40685001
0.031767 -0.0014123 -0.40678999
0.031761002 -0.0015078 -0.40673
0.031755999 -0.0016034 -0.40667
0.031750999 -0.0016989 -0.40662
0.031746 -0.0017944 -0.40656999
0.031741999 -0.00189 -0.40652999
0.031738002 -0.0019855001 -0.40649
0.031738002 -0.0019855001 -0.40649
0.031734999 -0.0020810999 -0.40647
0.031732999 -0.0021766999 -0.40643999
0.031730998 -0.0022723 -0.40643001
0.03173 -0.0023679 -0.40641999
0.031729002 -0.0024635 -0.40641001
0.031727999 -0.0025591 -0.40641001
0.031727999 -0.0026547001 -0.40641001
0.031729002 -0.0027503001 -0.40641001
0.031729002 -0.0028458999 -0.40641999
0.03173 -0.0029414999 -0.40643001
0.031730998 -0.0030371 -0.40643999
0.031732 -0.0031326001 -0.40645
0.031732999 -0.0032281999 -0.40645999
0.031734001 -0.0033237999 -0.40647
0.031734999 -0.0034193001 -0.40648001
0.031736001 -0.0035148 -0.40649
0.031737 -0.0036102999 -0.40650001
0.031738002 -0.0037058 -0.40650001
0.031738002 -0.0038013 -0.40650001
0.031738002 -0.0038967 -0.40649
0.031738002 -0.0038967 -0.40649
0.031738002 -0.0039920998 -0.40648001
0.031738002 -0.0040874998 -0.40647
0.031737 -0.0041828002 -0.40645
0.031736001 -0.0042781001 -0.40643001
0.031734999 -0.0043734 -0.4064
0.031732999 -0.0044685998 -0.40637001
0.031730998 -0.0045638001 -0.40632999
0.031729002 -0.0046589002 -0.40628999
0.031725999 -0.0047539999 -0.40625
0.031723998 -0.0048488998 -0.40619999
0.031720001 -0.0049438998 -0.40615001
0.031716999 -0.0050387001 -0.40608999
0.031713001 -0.0051334999 -0.40603
0.031709 -0.0052282 -0.40597001
0.031704001 -0.0053228 -0.4059
0.0317 -0.0054174 -0.40583
0.031693999 -0.0055117998 -0.40575999
0.031688999 -0.0056061 -0.40568
0.031683002 -0.0057004001 -0.40560001
0.031677 -0.0057945 -0.40551999
0.031677 -0.0057945 -0.40551999
0.031670999 -0.0058885999 -0.40542999
0.031663999 -0.0059825 -0.40533999
0.031656999 -0.0060764002 -0.40525001
0.031649999 -0.0061701001 -0.40516001
0.031643 -0.0062638 -0.40505999
0.031635001 -0.0063574002 -0.40496001
0.031626999 -0.0064508999 -0.40485999
0.031619001 -0.0065444 -0.40476
0.031610999 -0.0066378 -0.40465999
0.031603001 -0.0067312 -0.40456
0.031594999 -0.0068244999 -0.40445
0.031587001 -0.0069177998 -0.40435001
0.031578999 -0.0070111002 -0.40425
0.031571001 -0.0071044001 -0.40415001
0.031562999 -0.0071975999 -0.40404999
0.031555001 -0.0072908001 -0.40395001
0.031546999 -0.0073839999 -0.40384999
0.031539001 -0.0074772001 -0.40375
0.031532001 -0.0075705 -0.40366
0.031525001 -0.0076636998 -0.40356001
0.031525001 -0.0076636998 -0.40356001
0.031518001 -0.0077570002 -0.40347001
0.031511001 -0.0078502996 -0.40338999
0.031504001 -0.0079436004 -0.40329999
0.031498 -0.008037 -0.40322
0.031491999 -0.0081304004 -0.40314001
0.031486001 -0.0082238 -0.40305999
0.031481002 -0.0083173001 -0.40299001
0.031475 -0.0084108002 -0.40292001
0.031470001 -0.0085043004 -0.40285
0.031465001 -0.0085979002 -0.40279001
0.031461 -0.0086914999 -0.40272999
0.031456999 -0.0087852003 -0.40267
0.031452999 -0.0088790003 -0.40261
0.031449001 -0.0089726998 -0.40256
0.031445999 -0.0090666004 -0.40252
0.031443 -0.0091605 -0.40248001
0.031440001 -0.0092545003 -0.40244001
0.031436998 -0.0093484996 -0.40239999
0.031435002 -0.0094426004 -0.40237001
0.031433001 -0.0095367003 -0.40233999
0.031433001 -0.0095367003 -0.40233999
0.031431001 -0.0096310005 -0.40232
0.031429999 -0.0097252997 -0.4023
0.031429 -0.0098195998 -0.40228999
0.031428002 -0.0099139996 -0.40228
0.031428002 -0.010009 -0.40226999
0.031427 -0.010103 -0.40226001
0.031427 -0.010198 -0.40226001
0.031427 -0.010292 -0.40226001
0.031427 -0.010387 -0.40226001
0.031427 -0.010481 -0.40226999
0.031428002 -0.010576 -0.40226999
0.031428002 -0.010671 -0.40228
0.031429 -0.010766 -0.40228
0.031429 -0.01086 -0.40228999
0.031429999 -0.010955 -0.4023
0.031431001 -0.01105 -0.40231001
0.031431001 -0.011145 -0.40232
0.031431999 -0.011239 -0.40233001
0.031433001 -0.011334 -0.40233999
0.031433001 -0.011429 -0.40233999
0.031433001 -0.011429 -0.40233999
0.031434 -0.011524 -0.40235001
0.031434 -0.011618 -0.40235999
0.031434 -0.011713 -0.40235999
0.031434 -0.011808 -0.40235999
0.031435002 -0.011902 -0.40237001
0.031435002 -0.011997 -0.40237001
0.031435002 -0.012091 -0.40237001
0.031435002 -0.012186 -0.40237001
0.031435002 -0.012281 -0.40237001
0.031435002 -0.012375 -0.40237001
0.031435002 -0.01247 -0.40237001
0.031435002 -0.012564 -0.40235999
0.031434 -0.012659 -0.40235999
0.031434 -0.012754 -0.40235999
0.031434 -0.012848 -0.40235999
0.031434 -0.012943 -0.40235001
0.031434 -0.013037 -0.40235001
0.031433001 -0.013132 -0.40235001
0.031433001 -0.013226 -0.40235001
0.031433001 -0.013321 -0.40233999
0.031433001 -0.013321 -0.40233999
0.031433001 -0.013415 -0.40233999
0.031433001 -0.01351 -0.40233999
0.031433001 -0.013605 -0.40233999
0.031431999 -0.013699 -0.40233999
0.031431999 -0.013794 -0.40233001
0.031431999 -0.013888 -0.40233001
0.031431999 -0.013983 -0.40233001
0.031431999 -0.014078 -0.40233001
0.031431999 -0.014172 -0.40233001
0.031431999 -0.014267 -0.40233001
0.031431999 -0.014361 -0.40233001
0.031431999 -0.014456 -0.40233001
0.031431999 -0.014551 -0.40233001
0.031431999 -0.014645 -0.40233001
0.031431999 -0.01474 -0.40233001
0.031431999 -0.014834 -0.40233001
0.031433001 -0.014929 -0.40233999
0.031433001 -0.015024 -0.40233999
0.031433001 -0.015118 -0.40233999
0.031433001 -0.015213 -0.40233999
0.031433001 -0.015213 -0.40233999
0.031433001 -0.015308 -0.40235001
0.031434 -0.015402 -0.40235001
0.031434 -0.015497 -0.40235999
0.031434 -0.015592 -0.40235999
0.031435002 -0.015686 -0.40235999
0.031435002 -0.015781 -0.40237001
0.031435002 -0.015876001 -0.40237001
0.031435002 -0.015969999 -0.40237001
0.031435002 -0.016065 -0.40237999
0.031436 -0.016159 -0.40237999
0.031436 -0.016254 -0.40237999
0.031436 -0.016349001 -0.40237999
0.031436 -0.016442999 -0.40237999
0.031436 -0.016538 -0.40237999
0.031436 -0.016632 -0.40237999
0.031435002 -0.016727 -0.40237001
0.031435002 -0.016821999 -0.40237001
0.031434 -0.016915999 -0.40235999
0.031434 -0.017011 -0.40235001
0.031433001 -0.017105 -0.40233999
0.031433001 -0.017105 -0.40233999
0.031431999 -0.017200001 -0.40233001
0.031431001 -0.017294001 -0.40232
0.031429999 -0.017387999 -0.40231001
0.031429 -0.017483 -0.40228999
0.031428002 -0.017577 -0.40228
0.031427 -0.017672 -0.40226001
0.031426001 -0.017766001 -0.40224999
0.031424999 -0.017860999 -0.40224001
0.031424999 -0.017955 -0.40222999
0.031424001 -0.01805 -0.40222001
0.031424001 -0.018144 -0.40222001
0.031422999 -0.018239001 -0.40221
0.031422999 -0.018332999 -0.40221
0.031424001 -0.018428 -0.40222001
0.031424001 -0.018523 -0.40222999
0.031424999 -0.018618001 -0.40224001
0.031427 -0.018712001 -0.40226001
0.031428002 -0.018807 -0.40228
0.031429999 -0.018902 -0.40231001
0.031433001 -0.018997001 -0.40233999
0.031433001 -0.018997001 -0.40233999
0.031436 -0.019091999 -0.40239
0.031440001 -0.019187 -0.40243
0.031443998 -0.019283 -0.40248999
0.031447999 -0.019378001 -0.40255001
0.031452999 -0.019474 -0.40261
0.031456999 -0.019569 -0.40267
0.031463001 -0.019664999 -0.40274
0.031468 -0.019761 -0.40281001
0.031473 -0.019858001 -0.40288001
0.031477999 -0.019954 -0.40294999
0.031484 -0.020051001 -0.40303001
0.031489 -0.020148 -0.40310001
0.031493999 -0.020245001 -0.40316999
0.031500001 -0.020343 -0.40324
0.031504001 -0.020440999 -0.40329999
0.031509001 -0.020539001 -0.40336001
0.031514 -0.020637 -0.40342
0.031518001 -0.020736 -0.40347001
0.031521 -0.020834999 -0.40351999
0.031525001 -0.020935001 -0.40356001
0.031525001 -0.020935001 -0.40356001
0.031528 -0.021035001 -0.40360001
0.03153 -0.021135001 -0.40362999
0.031532001 -0.021236001 -0.40364999
0.031532999 -0.021336 -0.40367001
0.031535 -0.021437 -0.40368
0.031535 -0.021537 -0.40369001
0.031536002 -0.021636 -0.40369001
0.031536002 -0.021736 -0.40369999
0.031536002 -0.021833999 -0.40369001
0.031536002 -0.021932 -0.40369001
0.031535 -0.022028999 -0.40368
0.031534001 -0.022125 -0.40367001
0.031534001 -0.022220001 -0.40366
0.031532999 -0.022314001 -0.40364
0.031530999 -0.022406001 -0.40362999
0.03153 -0.022497 -0.40362
0.031528998 -0.022585999 -0.40360001
0.031527001 -0.022673 -0.40358999
0.031525999 -0.022759 -0.40358001
0.031525001 -0.022841999 -0.40356001
0.031525001 -0.022841999 -0.40356001
0.031523 -0.022924 -0.40355
0.031521998 -0.023003999 -0.40355
0.031521 -0.023083 -0.40353999
0.031520002 -0.023161 -0.40353999
0.031520002 -0.023239 -0.40355
0.031518999 -0.023318 -0.40356001
0.031520002 -0.023398999 -0.40357
0.031520002 -0.023481 -0.40358999
0.031521 -0.023565 -0.40362
0.031523 -0.023652 -0.40364999
0.031525001 -0.023742 -0.40369999
0.031528998 -0.023836 -0.40375
0.031532001 -0.023934999 -0.40380999
0.031537 -0.024038 -0.40388
0.031543002 -0.024147 -0.40395999
0.031548999 -0.024263 -0.40404999
0.031557001 -0.024385 -0.40415001
0.031564999 -0.024514001 -0.40426999
0.031575002 -0.02465 -0.40439999
0.031585999 -0.024796 -0.40454
0.031585999 -0.024796 -0.40454
0.031598002 -0.024948999 -0.40470001
0.031610999 -0.025110999 -0.40487
0.031626001 -0.025281001 -0.40505001
0.031640999 -0.025459001 -0.40524
0.031658001 -0.025644001 -0.40544999
0.031675 -0.025835 -0.40566999
0.031693 -0.026032001 -0.40588999
0.031711999 -0.026236 -0.40612999
0.031732 -0.026443999 -0.40638
0.031753 -0.026658 -0.40663001
0.031773999 -0.026875 -0.40689
0.031796001 -0.027097 -0.40715
0.031817999 -0.027322 -0.40742001
0.031840999 -0.027550999 -0.4077
0.031863999 -0.027782001 -0.40798
0.031886999 -0.028015001 -0.40827
0.031911001 -0.02825 -0.40854999
0.031934001 -0.028486 -0.40884
0.031957999 -0.028724 -0.40913001
0.031982001 -0.028960999 -0.40942001
0.033813 0.003767 -0.40845001
0.033808999 0.0036708999 -0.4084
0.033803999 0.0035749001 -0.40834001
0.033799 0.0034787999 -0.40829
0.033794999 0.0033827 -0.40825
0.033790998 0.0032867 -0.4082
0.033787001 0.0031906001 -0.40816
0.033783998 0.0030944999 -0.40812999
0.033780999 0.0029984999 -0.40810001
0.033778999 0.0029024 -0.40807
0.033776999 0.0028063999 -0.40806001
0.033776 0.0027103999 -0.40805
0.033776 0.0026143 -0.40805
0.033776999 0.0025183 -0.40806001
0.033778999 0.0024222999 -0.40808001
0.033782002 0.0023262999 -0.40810999
0.033785 0.0022302 -0.40814999
0.033790998 0.0021342 -0.4082
0.033797 0.0020383 -0.40827
0.033803999 0.0019423 -0.40834999
0.033814002 0.0018463 -0.40845001
0.033814002 0.0018463 -0.40845001
0.033824001 0.0017504001 -0.40856001
0.033836 0.0016544 -0.40867999
0.033849001 0.0015584 -0.40882
0.033861998 0.0014625 -0.40897
0.033877 0.0013666 -0.40913001
0.033891998 0.0012706 -0.40928999
0.033907998 0.0011746 -0.40946001
0.033923998 0.0010785999 -0.40963
0.033941001 0.00098264997 -0.40981001
0.033957001 0.00088663999 -0.40998
0.033973999 0.00079060002 -0.41016001
0.033989999 0.00069453003 -0.41033
0.034005001 0.00059844 -0.41049001
0.034019999 0.00050230999 -0.41065001
0.034033999 0.00040615001 -0.41080001
0.034047 0.00030993999 -0.41095001
0.034060001 0.00021369 -0.41108
0.034070998 0.0001174 -0.41119
0.034079999 2.1057e-05 -0.41128999
0.034088001 -7.5340002e-05 -0.41137999
0.034088001 -7.5340002e-05 -0.41137999
0.034093998 -0.00017179 -0.41144001
0.034099001 -0.00026828999 -0.41148999
0.034102 -0.00036482999 -0.41152
0.034104001 -0.00046141 -0.41154
0.034104001 -0.00055801001 -0.41154
0.034102999 -0.00065462 -0.41152999
0.034100998 -0.00075125002 -0.41150001
0.034097001 -0.00084787997 -0.41147
0.034093 -0.00094449997 -0.41141999
0.034086999 -0.0010411 -0.41136
0.034081001 -0.0011377 -0.41128999
0.034074001 -0.0012342 -0.41121
0.034065999 -0.0013308 -0.41113001
0.034056999 -0.0014272 -0.41104001
0.034047998 -0.0015236 -0.41093999
0.034038998 -0.00162 -0.41084
0.034028001 -0.0017163 -0.41073
0.034017999 -0.0018124999 -0.41062
0.034007002 -0.0019086 -0.41051
0.033996999 -0.0020045999 -0.4104
0.033996999 -0.0020045999 -0.4104
0.033985998 -0.0021005 -0.41029
0.033975001 -0.0021964 -0.41016999
0.033964001 -0.0022921001 -0.41005999
0.033953 -0.0023878 -0.40994999
0.033941999 -0.0024834001 -0.40983999
0.033930998 -0.0025789 -0.40972999
0.033921 -0.0026744001 -0.40961999
0.033909999 -0.0027697999 -0.40950999
0.0339 -0.0028651999 -0.40939999
0.033890001 -0.0029606 -0.4093
0.033879999 -0.0030559001 -0.40920001
0.033870999 -0.0031512 -0.4091
0.033861998 -0.0032464999 -0.40900001
0.033854 -0.0033418001 -0.40891001
0.033845998 -0.0034371 -0.40882
0.033838 -0.0035323999 -0.40874001
0.033831 -0.0036277 -0.40865999
0.033824999 -0.0037231001 -0.40858001
0.033819001 -0.0038185001 -0.40851
0.033814002 -0.0039138999 -0.40845001
0.033814002 -0.0039138999 -0.40845001
0.033808999 -0.0040094 -0.40838999
0.033805002 -0.0041049002 -0.40832999
0.033801999 -0.0042003999 -0.40827999
0.033799 -0.0042960001 -0.40823001
0.033796001 -0.0043915999 -0.40819001
0.033794001 -0.0044872002 -0.40814
0.033792 -0.0045826999 -0.40810001
0.03379 -0.0046783001 -0.40806001
0.033787999 -0.0047738999 -0.40803
0.033785999 -0.0048694001 -0.40799001
0.033785 -0.0049649002 -0.40795001
0.033783 -0.0050603002 -0.40790999
0.033780001 -0.0051556998 -0.40786001
0.033778001 -0.0052510998 -0.40781999
0.033775002 -0.0053463001 -0.40777001
0.033771999 -0.0054414999 -0.40772
0.033767998 -0.0055366 -0.40766999
0.033762999 -0.0056316 -0.40761
0.033758 -0.0057264999 -0.40753999
0.033752002 -0.0058212001 -0.40746999
0.033752002 -0.0058212001 -0.40746999
0.033746 -0.0059159002 -0.40739
0.033737998 -0.0060104001 -0.40731001
0.03373 -0.0061049 -0.40722001
0.033721998 -0.0061992002 -0.40713
0.033713002 -0.0062934002 -0.40702999
0.033702999 -0.0063876002 -0.40693
0.033693001 -0.0064817001 -0.40683001
0.033682998 -0.0065756999 -0.40672001
0.033673 -0.0066697001 -0.40662
0.033661999 -0.0067635998 -0.40651
0.033652 -0.0068574999 -0.4064
0.033640999 -0.0069513 -0.40628999
0.033631001 -0.0070451 -0.40619001
0.033620998 -0.0071389 -0.40608001
0.033611 -0.0072327 -0.40597999
0.033601999 -0.0073265 -0.40588
0.033592999 -0.0074203 -0.40577999
0.033583999 -0.0075141001 -0.40569001
0.033576 -0.0076080002 -0.40560001
0.033569001 -0.0077018999 -0.40551999
0.033569001 -0.0077018999 -0.40551999
0.033562999 -0.0077958 -0.40544
0.033557002 -0.0078897001 -0.40537
0.033551998 -0.0079837004 -0.40529999
0.033548001 -0.0080776997 -0.40524
0.033544 -0.0081717996 -0.40518999
0.033539999 -0.0082657998 -0.40513
0.033537 -0.0083598997 -0.40507999
0.033535 -0.0084539996 -0.40503001
0.033532001 -0.0085480995 -0.40498999
0.033530001 -0.0086422004 -0.40494999
0.033528 -0.0087363003 -0.40491
0.033526 -0.0088304002 -0.40487
0.033525001 -0.0089245001 -0.40483001
0.033523001 -0.0090186 -0.40479001
0.033521 -0.0091126002 -0.40474999
0.033519 -0.0092065996 -0.40470999
0.033516999 -0.0093007004 -0.40467
0.033514 -0.0093946001 -0.40463001
0.033511002 -0.0094886003 -0.40459001
0.033507999 -0.0095825 -0.40454
0.033507999 -0.0095825 -0.40454
0.033505 -0.0096763996 -0.40448999
0.033500999 -0.0097701997 -0.40443999
0.033496998 -0.0098641003 -0.40439001
0.033491999 -0.0099577997 -0.40434
0.033487 -0.010052 -0.40428001
0.033482 -0.010145 -0.40423
0.033477001 -0.010239 -0.40417001
0.033472002 -0.010333 -0.40411001
0.033466 -0.010427 -0.40406001
0.033461001 -0.01052 -0.40400001
0.033456001 -0.010614 -0.40395001
0.033450998 -0.010708 -0.40389001
0.033445001 -0.010802 -0.40384001
0.033440001 -0.010896 -0.40379
0.033436 -0.010989 -0.40375
0.033431001 -0.011083 -0.40369999
0.033427 -0.011177 -0.40366
0.033422999 -0.011271 -0.40362999
0.03342 -0.011365 -0.40358999
0.033417001 -0.011459 -0.40356001
0.033417001 -0.011459 -0.40356001
0.033413999 -0.011554 -0.40353999
0.033411998 -0.011648 -0.40351999
0.033410002 -0.011742 -0.40349999
0.033408999 -0.011836 -0.40349001
0.033408001 -0.011931 -0.40347999
0.033408001 -0.012025 -0.40347999
0.033406999 -0.01212 -0.40347001
0.033406999 -0.012214 -0.40347001
0.033408001 -0.012309 -0.40347999
0.033408001 -0.012404 -0.40347999
0.033408999 -0.012498 -0.40349001
0.033408999 -0.012593 -0.40349001
0.033410002 -0.012688 -0.40349999
0.033411 -0.012782 -0.40351
0.033411998 -0.012877 -0.40351999
0.033413 -0.012972 -0.40353
0.033413999 -0.013067 -0.40353999
0.033415001 -0.013162 -0.40355
0.033415999 -0.013257 -0.40356001
0.033417001 -0.013351 -0.40356001
0.033417001 -0.013351 -0.40356001
0.033417001 -0.013446 -0.40357
0.033418 -0.013541 -0.40357
0.033418 -0.013636 -0.40358001
0.033418 -0.013731 -0.40358001
0.033419002 -0.013826 -0.40358001
0.033419002 -0.013921 -0.40358001
0.033419002 -0.014016 -0.40358001
0.033419002 -0.014111 -0.40358001
0.033419002 -0.014205 -0.40358001
0.033418 -0.0143 -0.40358001
0.033418 -0.014395 -0.40358001
0.033418 -0.01449 -0.40358001
0.033418 -0.014585 -0.40357
0.033418 -0.01468 -0.40357
0.033417001 -0.014776 -0.40357
0.033417001 -0.014871 -0.40357
0.033417001 -0.014966 -0.40357
0.033417001 -0.015061 -0.40356001
0.033417001 -0.015156 -0.40356001
0.033417001 -0.015251 -0.40356001
0.033417001 -0.015251 -0.40356001
0.033417001 -0.015346 -0.40356001
0.033417001 -0.015442 -0.40357
0.033417001 -0.015537 -0.40357
0.033417001 -0.015632 -0.40357
