# .PCD v0.7 - Point Cloud Data file format
VERSION 0.7
FIELDS x y z
SIZE 4 4 4
TYPE F F F
COUNT 1 1 1
WIDTH 536
HEIGHT 1
VIEWPOINT 0 0 0 1 0 0 0
POINTS 536
DATA ascii
-0.016335299 0.015838001 -0.41435099
-0.014421 0.016977306 -0.41526848
0.034089882 -0.00070901623 -0.41138998
0.034070332 0.00011738233 -0.4111867
-0.020084001 0.0084073003 -0.41137001
-0.0201525 0.010521024 -0.412835
-0.018170999 0.013975143 -0.41167143
-0.016237801 0.013979999 -0.41182399
-0.0142925 0.014436751 -0.41148001
-0.018213499 0.015733687 -0.41272247
-0.016299143 0.015577286 -0.41340429
-0.013218286 0.016266681 -0.41259676
-0.010415601 0.018830601 -0.41121197
0.024248699 -0.034237396 -0.40873203
0.031934399 -0.0284872 -0.408842
0.033821452 -0.0039143204 -0.40850848
-0.023805 -0.001348431 -0.40871
0.033970941 -0.0022293704 -0.4101359
0.033865735 0.0016607953 -0.40900525
-0.019956252 0.0044840751 -0.40865749
0.033797748 0.0034307626 -0.40827751
-0.019229801 0.00744092 -0.40954199
-0.018087499 0.010725975 -0.4098075
-0.016132999 0.01072075 -0.40917251
-0.01418275 0.0114365 -0.40844002
-0.018130001 0.012371 -0.41075
-0.0161935 0.012656 -0.410705
-0.013197352 0.013597335 -0.40943047
-0.010336 0.014925 -0.40805
-0.012325375 0.015471 -0.41053125
-0.010372668 0.016469877 -0.40960634
-0.0084239068 0.017303213 -0.40849215
-0.010406333 0.01819 -0.41094002
-0.0079841539 0.018682763 -0.40897998
0.020235585 -0.037117463 -0.40556917
0.020220445 -0.035595886 -0.40524334
0.0221323 -0.034422405 -0.40533891
0.025444476 -0.033615667 -0.4060657
0.025270749 -0.031742267 -0.40571564
0.029019287 -0.030350927 -0.40636069
0.025926 -0.029974001 -0.40505999
0.029436322 -0.028993819 -0.40558785
0.031829748 -0.027438 -0.40756249
0.031696003 -0.026051559 -0.40592554
-0.023666751 -0.015222 -0.40650001
-0.023665093 -0.013497788 -0.40647367
-0.023021879 -0.010245758 -0.40647584
-0.02272173 -0.0075299013 -0.40651712
0.031650003 -0.0061701001 -0.4051567
0.033619363 -0.007249386 -0.40603608
-0.022656517 -0.0046371231 -0.40642139
0.031718679 -0.0045334585 -0.40616941
0.033769075 -0.005426323 -0.40770534
-0.02183312 -0.0015966401 -0.40566105
-0.0197985 -0.000291834 -0.40537
0.031770453 -0.0014790033 -0.40683576
-0.019852499 0.0013249465 -0.40647665
-0.017883999 0.0028633 -0.40529001
0.031760059 0.0015116874 -0.40670365
-0.019909 0.0030262 -0.40764999
-0.017542601 0.0049184998 -0.40617198
0.031679094 0.0045132781 -0.40553758
-0.018000999 0.0073841 -0.40790001
-0.016430998 0.007530381 -0.40701801
-0.014094 0.007767234 -0.40591002
0.031650111 0.0064031002 -0.40524113
-0.012845444 0.010556289 -0.40653887
-0.01025375 0.01175425 -0.4051525
-0.012238599 0.012724601 -0.407518
-0.010298259 0.013517336 -0.4067122
-0.0078288661 0.014439002 -0.40551776
-0.0071582752 0.016223162 -0.40651432
-0.0045479005 0.017213531 -0.40558589
-0.0026376001 0.017872501 -0.40507501
-0.0064892997 0.018372249 -0.40761375
-0.0045563001 0.018550908 -0.40629724
-0.0026399181 0.018499998 -0.4053418
0.0049569001 -0.039614998 -0.403375
0.0078014829 -0.039566666 -0.40337333
0.0106482 -0.0394742 -0.40342799
-0.0064981994 -0.03692618 -0.40288651
-0.0045110709 -0.037255429 -0.40219858
-0.00262165 -0.037390999 -0.40220249
0.004946033 -0.038111668 -0.40245
0.007786483 -0.03801683 -0.40253922
0.010635823 -0.037247881 -0.40273297
0.013510064 -0.036973134 -0.40327534
0.016363261 -0.037016086 -0.40402308
0.01828252 -0.03707061 -0.40459049
0.022098333 -0.036106333 -0.40461668
-0.0072648902 -0.035688456 -0.4021537
0.0106225 -0.035459999 -0.40216002
0.014030757 -0.035007622 -0.40271863
0.016309308 -0.034689464 -0.40270153
0.019053234 -0.034317181 -0.40400821
0.022111667 -0.034886833 -0.40489331
-0.0166199 -0.031268902 -0.40221399
0.019447368 -0.031719871 -0.40281337
0.022523237 -0.0312146 -0.40419641
0.024008999 -0.031004334 -0.40488663
-0.017748501 -0.029906999 -0.40206999
0.023463164 -0.028796054 -0.40323949
0.025835067 -0.028447837 -0.40359464
0.028184883 -0.028083008 -0.40447971
-0.019646665 -0.026021833 -0.40220165
0.025754249 -0.026476001 -0.40229753
0.028700858 -0.025546145 -0.40344983
0.031570695 -0.024564898 -0.40433598
0.029604536 -0.022553716 -0.40329751
0.031528264 -0.022543706 -0.40363109
0.033516053 -0.021994649 -0.40462407
-0.021592421 -0.018524082 -0.40358588
-0.019652897 -0.018863473 -0.40233371
0.029548377 -0.020717874 -0.40222499
0.03146245 -0.019509578 -0.40273723
0.033445969 -0.019564301 -0.40387666
-0.021589026 -0.016467331 -0.40352964
-0.019652093 -0.016469674 -0.40231031
0.031432796 -0.016470646 -0.40233976
0.034202579 -0.016331257 -0.40360233
-0.02163915 -0.013519 -0.40433162
-0.019690271 -0.013483061 -0.40332669
0.031433113 -0.013504217 -0.40234482
0.034329943 -0.013479559 -0.40313071
-0.021659762 -0.011261529 -0.40466294
-0.019699182 -0.010509251 -0.40356243
0.031432085 -0.010527119 -0.40233034
0.034282651 -0.010608786 -0.40386945
-0.019708123 -0.0075242552 -0.40375662
-0.017761501 -0.007180634 -0.40234953
0.029553143 -0.0072790394 -0.40228719
0.031531103 -0.0076642605 -0.40363601
0.033528201 -0.0087363003 -0.40491
-0.019746434 -0.0046095401 -0.40457341
-0.017760549 -0.004641288 -0.40233099
0.029595386 -0.0044995523 -0.40311825
-0.019748643 -0.0019707617 -0.40455741
-0.017764777 -0.0019296841 -0.40248269
0.028692786 -0.0014457284 -0.40343836
-0.016858876 0.001581565 -0.40351623
-0.01397 0.0024445001 -0.40233999
0.028678985 0.0015015535 -0.40344381
-0.015943 0.0043087662 -0.40436998
-0.013627401 0.0045815399 -0.40335399
0.028661542 0.0045322063 -0.40321925
-0.0125072 0.0071424404 -0.40387601
-0.010186 0.0089002997 -0.40206
0.028635338 0.0075030113 -0.40285248
0.03160625 0.0072045126 -0.40476376
-0.012157 0.0091196997 -0.40485001
-0.010227429 0.01108744 -0.40392894
-0.0080308216 0.011447286 -0.40239
0.028482558 0.010314272 -0.40231374
-0.0072118272 0.013088651 -0.40378889
-0.0045145336 0.014368083 -0.40265083
-0.0026215501 0.0149205 -0.402165
0.025745202 0.0144216 -0.40215999
0.027664004 0.012609154 -0.40233997
-0.0045313626 0.015659811 -0.40418816
-0.0019176659 0.016663706 -0.40333274
0.0011627 0.017266294 -0.40240526
0.025757 0.015068 -0.40233999
-0.00073238695 0.018485999 -0.40396199
0.0011625135 0.019393234 -0.40233961
0.003277909 0.019512942 -0.40232468
0.0068373 0.0204455 -0.40219998
-0.0045085 -0.036301002 -0.40197501
-0.0012003174 -0.036811873 -0.40130123
0.001159 -0.03711525 -0.40113503
0.0036752669 -0.036949668 -0.40119168
0.0077722501 -0.036545832 -0.40174505
-0.012053999 -0.033536334 -0.40135169
-0.010163584 -0.033541754 -0.4014217
-0.0073724482 -0.034199152 -0.40146711
-0.0045018815 -0.034308318 -0.4014141
-0.0016707436 -0.034439649 -0.4007965
0.0011564856 -0.034637574 -0.40028429
0.0039049229 -0.034517534 -0.39995462
0.0077506439 -0.034277003 -0.40055743
0.010596478 -0.034068085 -0.40132266
0.012905719 -0.034022473 -0.40148658
0.0162818 -0.0332378 -0.401858
-0.015833778 -0.030822447 -0.40159166
-0.01284809 -0.031318668 -0.40137213
-0.010154749 -0.031503908 -0.40104249
-0.0073052165 -0.031483624 -0.40055183
-0.0044866237 -0.031502619 -0.40010911
-0.0018777002 -0.031667907 -0.3997187
0.00115388 -0.032201998 -0.39939401
0.0049063 -0.032644998 -0.39908001
0.0078761308 -0.032124128 -0.39950067
0.010549 -0.032187499 -0.39961001
0.013534018 -0.031638227 -0.4001193
0.016251499 -0.031505752 -0.40107346
0.018155001 -0.030687064 -0.40162
-0.016726475 -0.028470272 -0.40141666
-0.013011375 -0.028539015 -0.4008972
-0.010176766 -0.028444268 -0.39961705
-0.0078610172 -0.028898342 -0.39954519
-0.0044753854 -0.029628003 -0.39916998
0.01429789 -0.029545447 -0.39920333
0.016191499 -0.029441498 -0.39967
0.019140285 -0.028611893 -0.40032521
0.022075124 -0.027939081 -0.40122795
-0.019629857 -0.024654001 -0.40184286
-0.016776135 -0.025520731 -0.40112945
-0.013908335 -0.025488848 -0.40038452
-0.011342713 -0.025719289 -0.39938372
0.019924317 -0.026139576 -0.39933524
0.022799551 -0.025469385 -0.40035853
0.025706096 -0.024938192 -0.4015319
0.027638 -0.024083 -0.40195999
-0.019605406 -0.022216965 -0.40132377
-0.016755456 -0.0225155 -0.40090212
-0.013879043 -0.022986591 -0.39964503
-0.0119852 -0.023722 -0.39914799
0.023494335 -0.022994295 -0.39951113
0.025626877 -0.022484811 -0.40026405
0.027596695 -0.022500634 -0.40147302
-0.019619068 -0.020395664 -0.4016147
-0.016711235 -0.019509645 -0.40026274
0.02557167 -0.019531878 -0.39938033
0.028399291 -0.019348374 -0.40107331
-0.016730146 -0.016472057 -0.40036616
0.028471334 -0.01646588 -0.4007124
-0.01674596 -0.013506306 -0.4003953
0.028434364 -0.013468562 -0.39999217
-0.016727462 -0.010502604 -0.40059885
0.028458983 -0.010487393 -0.40012711
-0.016142618 -0.0077196537 -0.40066999
0.02776031 -0.0076720309 -0.4004482
-0.015792094 -0.0046605067 -0.40037051
0.025568841 -0.0038732211 -0.3993358
0.027560297 -0.0044763731 -0.40101171
-0.015810251 -0.0019240497 -0.40101972
-0.0138805 -0.0014967649 -0.39971498
0.025593121 -0.0014986926 -0.39972296
0.027634 -0.0029098 -0.40195999
-0.015836 0.00041243 -0.40167999
-0.013166199 0.00143203 -0.40082797
-0.011988 0.00099377998 -0.39930001
0.023674 0.0028824001 -0.39905
0.025636211 0.0014899904 -0.40041214
-0.012048 0.0039484664 -0.40127
-0.010124501 0.0046683997 -0.3997325
0.023695497 0.0044900379 -0.39939037
0.025662117 0.0045074904 -0.40082762
-0.01016425 0.0074362252 -0.40123001
-0.0076722698 0.0081723686 -0.39948502
0.019915001 0.0085920002 -0.399156
0.022811251 0.0075602299 -0.399786
0.0256975 0.0074854251 -0.40139371
-0.0073567312 0.010022791 -0.40090966
-0.0044860621 0.010966662 -0.40007544
-0.0026023213 0.011366216 -0.39950639
0.018994592 0.010604788 -0.39950454
0.023263512 0.010279398 -0.4005439
0.025694672 0.010267287 -0.40134966
-0.0045003048 0.012906263 -0.40127525
-0.0017009673 0.013512913 -0.40038002
0.0011550481 0.013855667 -0.39979002
0.003784488 0.01449304 -0.3995856
0.0074110329 0.014547001 -0.39920998
0.01054 0.014784 -0.39912999
0.01420521 0.013309789 -0.39939898
0.016175 0.014010599 -0.39921999
0.018970467 0.013442134 -0.40026331
0.023204267 0.013378411 -0.40112546
0.025719002 0.0128864 -0.40173596
-0.0007282673 0.0156134 -0.40169001
0.0011591802 0.015776401 -0.40119931
0.0039027487 0.01640705 -0.40069589
0.0078733712 0.016506428 -0.39998791
0.010557 0.016518001 -0.399795
0.013436294 0.016494647 -0.39992943
0.016199142 0.016511571 -0.39984283
0.018911 0.01632075 -0.4009583
0.022230668 0.015836833 -0.40115666
0.0049349507 0.018928902 -0.40142697
0.0080767451 0.019364778 -0.40112111
0.010586168 0.019548999 -0.40093669
0.013094556 0.019172445 -0.40073779
0.016217999 0.0185255 -0.40033501
0.0181405 0.018570499 -0.40131497
-0.0013749209 -0.030381825 -0.39867741
0.0011517167 -0.030490667 -0.39865837
0.0037722131 -0.031354863 -0.39820269
0.0075221676 -0.030667517 -0.39843759
0.010526624 -0.030664498 -0.39867812
0.01239725 -0.030307747 -0.39867249
-0.0066029588 -0.02800921 -0.3984831
-0.0044671525 -0.028132882 -0.39841443
-0.0016552845 -0.028506296 -0.39764014
0.0011468276 -0.028397277 -0.39698133
0.003956472 -0.028355267 -0.39663479
0.0076001007 -0.028568214 -0.39687458
0.010495407 -0.028480845 -0.39760625
0.013137258 -0.028317597 -0.39789224
0.016137149 -0.027903402 -0.39829051
0.018025002 -0.027314834 -0.39885163
-0.010090267 -0.024657067 -0.39857599
-0.0072641638 -0.025483983 -0.39755064
-0.0044547264 -0.025449183 -0.39706397
-0.0016504901 -0.026122132 -0.39645997
0.010453999 -0.026803002 -0.39615667
0.013209445 -0.026169084 -0.39651024
0.016837616 -0.025276201 -0.39736053
0.019061077 -0.025452485 -0.39854321
-0.013849 -0.0214934 -0.398754
-0.010929238 -0.022370795 -0.39780119
-0.0077664996 -0.023029845 -0.39658067
-0.004444133 -0.023682499 -0.39616501
0.017579606 -0.022934942 -0.39655575
0.019804191 -0.02246053 -0.39676499
0.022163922 -0.022122651 -0.39842671
-0.013839205 -0.019515378 -0.39841908
-0.010971735 -0.019510012 -0.39694804
0.019781834 -0.020211 -0.39635667
0.022648988 -0.019488342 -0.39736897
-0.013839996 -0.01648356 -0.39843971
-0.011747778 -0.016642638 -0.39651585
0.023499513 -0.01656118 -0.39715657
0.025518205 -0.016488031 -0.39851937
-0.013839996 -0.013507364 -0.39844009
-0.011902324 -0.013571414 -0.39649233
0.023511741 -0.013524857 -0.39645115
0.02545546 -0.013480032 -0.39770815
-0.013839996 -0.010509682 -0.39844012
-0.011902003 -0.010499425 -0.39647964
0.023514168 -0.01045402 -0.39648974
0.025470559 -0.010491466 -0.39789703
-0.013839324 -0.0074986033 -0.39842826
-0.011900556 -0.007461261 -0.39644086
0.023524396 -0.0074872449 -0.39665341
0.025512606 -0.0075219851 -0.39843172
-0.013837906 -0.0043350765 -0.39839929
-0.011917881 -0.0043192664 -0.39699024
0.023577031 -0.0045261118 -0.39749473
0.025523197 -0.0053874468 -0.39860597
-0.013852 -0.0027467001 -0.39888999
-0.011248636 -0.0014997483 -0.39730814
-0.0081670508 -0.00097667496 -0.39624
0.022655547 -0.0014685312 -0.3974193
-0.0104608 0.001388044 -0.39830798
-0.0075585837 0.0015687934 -0.39676666
0.019787045 0.0019274566 -0.39641997
0.022631004 0.0014376595 -0.39781019
-0.0070483387 0.0046306695 -0.39756843
-0.0044471598 0.0053359601 -0.39641398
0.017908825 0.005300588 -0.39637762
0.019810122 0.0044559292 -0.39689913
0.021723587 0.0044649704 -0.3978706
-0.0063972622 0.0074767997 -0.39843598
-0.0044590305 0.0075974972 -0.3974919
-0.0023498829 0.00779382 -0.39650917
0.0011445124 0.0086283376 -0.39618999
0.0030069333 0.0088633001 -0.39612666
0.010458427 0.0086522428 -0.39617997
0.013822488 0.0079231616 -0.39657372
0.01705868 0.0075812559 -0.39708227
0.019879531 0.007251109 -0.39838603
0.0217855 0.0062402003 -0.39886501
-0.0044684336 0.0094378442 -0.3985689
-0.0014047832 0.010263862 -0.39784223
0.0011472151 0.010460494 -0.39711875
0.0038063945 0.010675542 -0.39716378
0.0079512242 0.010776985 -0.3971189
0.010485 0.010625995 -0.39720628
0.013278146 0.010612422 -0.39766875
0.016241418 0.010000349 -0.3979477
0.018015351 0.0095692473 -0.39865291
-0.00072343502 0.012171749 -0.39894
0.0011518 0.012301429 -0.39868003
0.0040757488 0.012990197 -0.39841861
0.0081244502 0.013005779 -0.39844832
0.01052077 0.01305123 -0.39843458
0.012390153 0.01305123 -0.39843458
0.016160334 0.012571667 -0.39884004
0.0011437667 -0.027174333 -0.3959333
0.0039355997 -0.027045 -0.39598501
0.0085849995 -0.027161 -0.39593998
-0.0016475153 -0.024604965 -0.39568502
0.0017852 -0.025217548 -0.39506489
0.0042515635 -0.025691021 -0.39530259
0.0076431544 -0.025508026 -0.39521053
0.010427173 -0.025323967 -0.39509371
0.013296933 -0.024650566 -0.39568266
-0.0067005907 -0.021985875 -0.3954615
-0.0044353618 -0.022201998 -0.39541915
-0.0016427658 -0.022510655 -0.39460394
0.0021004679 -0.022864001 -0.39369982
0.004840319 -0.02282181 -0.39367002
0.007617793 -0.022816755 -0.39366674
0.010394583 -0.022908123 -0.39374706
0.013198344 -0.02251097 -0.39459813
0.016367031 -0.022022596 -0.39551061
-0.0072174296 -0.019525355 -0.39501932
-0.0044193692 -0.019523604 -0.39392456
-0.0015673804 -0.02045681 -0.39334419
0.013583896 -0.019755041 -0.39331636
0.016883105 -0.019478859 -0.39442271
0.019731998 -0.018706063 -0.39553997
-0.010010535 -0.016353602 -0.395531
-0.0072007189 -0.016519755 -0.39405939
0.014077 -0.017866001 -0.39307499
0.017039437 -0.016695254 -0.39335164
0.019688234 -0.016490972 -0.39463767
0.021593595 -0.016443029 -0.39554343
-0.010010119 -0.013534971 -0.39551735
-0.0076962947 -0.013806134 -0.39361885
0.017777633 -0.013731865 -0.3933363
0.019653153 -0.013525332 -0.39370969
0.021588765 -0.013532442 -0.39545533
-0.010009946 -0.010470179 -0.39551002
-0.0081099533 -0.010574812 -0.39330706
0.019638291 -0.010507578 -0.39331573
0.021565571 -0.010457966 -0.39496088
-0.010010518 -0.0075975005 -0.39553416
-0.0080651315 -0.0076408945 -0.39344695
0.017765 -0.0061268499 -0.39306
0.019645706 -0.0074749431 -0.39351144
0.021593068 -0.0074662538 -0.3955434
-0.0100033 -0.0054023471 -0.39527193
-0.0070705214 -0.0047741788 -0.39416
-0.0044114497 -0.0034292501 -0.39317501
0.01777743 -0.0045237779 -0.39333108
0.019685501 -0.0044907797 -0.39457238
0.021591913 -0.0045021176 -0.39551881
-0.010023 -0.0027739999 -0.39598
-0.006822743 -0.0016291162 -0.39516142
-0.0044200402 -0.0013139003 -0.39396
-0.0025622 -0.0003660575 -0.39323002
0.0175112 -0.0012883234 -0.39361826
0.019725116 -0.0014831085 -0.39542174
0.021619 -0.0029577001 -0.39596
-0.0063019004 0.00091238494 -0.39575499
-0.0044314996 0.0015334425 -0.39500248
-0.0021960281 0.0018045781 -0.39376599
0.014092157 0.0021738054 -0.39358318
0.016896078 0.0015121883 -0.39444539
0.0197444 0.00043909895 -0.395742
-0.0044398666 0.0036068668 -0.39576665
-0.0010962632 0.0050095054 -0.39437312
0.0015802087 0.0047181742 -0.39373782
0.0048370915 0.005478783 -0.39331999
0.0076122382 0.0054771998 -0.39331791
0.010398818 0.0045597944 -0.39392143
0.013196222 0.0045212759 -0.39444524
0.016622096 0.0042790286 -0.39518204
-0.00084969419 0.0072551714 -0.3955068
0.0020292022 0.0071012801 -0.39488974
0.0045258002 0.007640148 -0.39473397
0.0076459628 0.0074766604 -0.39454323
0.010435423 0.0071832337 -0.39541996
0.01259842 0.007034373 -0.39549643
0.016034499 0.0061851749 -0.39590001
0.0048615672 0.0093514221 -0.39562777
0.0075184228 0.0093173515 -0.39562622
0.00194375 -0.021363501 -0.39278623
0.0048319856 -0.021312429 -0.39282432
0.0076022292 -0.021315427 -0.39282712
0.010370111 -0.021403998 -0.39275002
-0.0016786323 -0.018930951 -0.39252168
0.0020547281 -0.019479766 -0.39209822
0.004818073 -0.019468179 -0.39185002
0.0075817574 -0.019468179 -0.39184991
0.010361204 -0.019491352 -0.39234614
0.012213714 -0.018929427 -0.39253813
-0.0044031707 -0.016502207 -0.39241585
-0.0016321985 -0.016519696 -0.39180684
0.0020507751 -0.016497988 -0.39132732
0.0048077614 -0.016490515 -0.39114302
0.0075677722 -0.016490655 -0.39114833
0.010334426 -0.016505424 -0.39150062
0.013068542 -0.016456284 -0.39179584
0.015910819 -0.01549409 -0.39268637
-0.0062503922 -0.01307596 -0.39245757
-0.004401844 -0.013515676 -0.39230582
-0.0016425011 -0.013538363 -0.39104652
0.0020598667 -0.013522262 -0.39055485
0.0047984039 -0.013579912 -0.39034033
0.0075775273 -0.013535149 -0.39034927
0.010315886 -0.013508344 -0.39074433
0.013094895 -0.013526516 -0.39133364
0.01609466 -0.013379947 -0.39236999
-0.0062483996 -0.010542819 -0.39232826
-0.0043909526 -0.010517383 -0.39137709
-0.001615488 -0.010522097 -0.39085266
0.001751613 -0.010743721 -0.39036751
0.0084681772 -0.011172054 -0.39036113
0.010307208 -0.010468546 -0.39037713
0.013080896 -0.010482929 -0.39087826
0.016819969 -0.010495348 -0.39215136
-0.0062495652 -0.0076903496 -0.3924042
-0.0043919138 -0.007631687 -0.3914524
-0.0016284836 -0.0075939256 -0.39078334
0.0011280621 -0.0075122039 -0.39033356
0.010307004 -0.0075033852 -0.39037824
0.013080503 -0.0075130463 -0.39086458
0.016770137 -0.0075623584 -0.39227268
-0.0044037998 -0.005227583 -0.39248332
-0.0015758083 -0.0047199996 -0.39110705
0.0019980103 -0.0042605842 -0.39047578
0.0047982247 -0.0038353915 -0.39032331
0.007576453 -0.0037224945 -0.39033461
0.010307285 -0.0044876058 -0.39037997
0.013089416 -0.0044962824 -0.3911517
0.015899369 -0.004511225 -0.39232576
-0.0014031662 -0.0016632038 -0.39198127
0.0022135647 -0.0014595672 -0.3913441
0.0048073414 -0.0013569988 -0.39109883
0.0075547476 -0.0014649078 -0.39053309
0.010313617 -0.0014649279 -0.39065909
0.013113262 -0.0014700721 -0.39180109
0.015903715 -0.0017394235 -0.39246818
-0.00071178999 0.0013101153 -0.39249504
0.0021795065 0.001821909 -0.39231968
0.0048118141 0.001557658 -0.39145559
0.0075716535 0.0015013072 -0.39132938
0.010355528 0.0015055042 -0.39219382
0.012771388 0.0012489368 -0.39230612
0.0026452274 0.0037536246 -0.39257696
0.0048278365 0.003974996 -0.39251229
0.007595262 0.0039745863 -0.3925105
0.010376 0.0030711 -0.39298999
0.0047942 -0.012086 -0.38997999
0.0066276002 -0.012085 -0.38997999
0.0029580686 -0.009655063 -0.38961938
0.0047878567 -0.01048502 -0.3894375
0.0071936785 -0.010226624 -0.38949338
0.0029561117 -0.0075087543 -0.38936788
0.0047873696 -0.0075195697 -0.38939878
0.0075314422 -0.0074843834 -0.38937247
0.0029575818 -0.0052994136 -0.38955593
0.00478927 -0.0052936552 -0.38955948
0.0075094616 -0.0052431314 -0.3895826
