# .PCD v0.7 - Point Cloud Data file format
VERSION 0.7
FIELDS x y z rgb
SIZE 4 4 4 4
TYPE F F F U
COUNT 1 1 1 1
WIDTH 1105
HEIGHT 1
VIEWPOINT 0 0 0 1 0 0 0
POINTS 1105
DATA ascii
-0.28228572 -0.19438095 0.65000004 13615049
-0.28104761 -0.19438095 0.65000004 13878221
-0.28067049 -0.19497904 0.65200001 13680831
-0.27985719 -0.19527811 0.65300006 13746624
-0.27861336 -0.19527811 0.65300006 13811924
-0.27736956 -0.19527811 0.65300006 14009303
-0.27612576 -0.19527811 0.65300006 13812435
-0.27488193 -0.19527811 0.65300006 14009814
-0.27405715 -0.19557716 0.65400004 13878732
-0.27239433 -0.19527811 0.65300006 13878732
-0.2711505 -0.19527811 0.65300006 13680842
-0.27032003 -0.19557716 0.65400004 13746635
-0.26907429 -0.19557716 0.65400004 13680842
-0.26782861 -0.19557716 0.65400004 13746635
-0.26658288 -0.19557716 0.65400004 13877962
-0.26493144 -0.19527811 0.65300006 13943755
-0.26368761 -0.19527811 0.65300006 13811149
-0.26244381 -0.19527811 0.65300006 14140114
-0.26120001 -0.19527811 0.65300006 14140889
-0.25995621 -0.19527811 0.65300006 14272475
-0.25871238 -0.19527811 0.65300006 14074825
-0.2570743 -0.19497904 0.65200001 14272204
-0.25583237 -0.19497904 0.65200001 14271950
-0.25459048 -0.19497904 0.65200001 14666708
-0.25373715 -0.19527811 0.65300006 14140366
-0.25249335 -0.19527811 0.65300006 14008780
-0.2516343 -0.19557716 0.65400004 13877710
-0.25038859 -0.19557716 0.65400004 14338261
-0.2495238 -0.1958762 0.65500003 14009296
-0.24827619 -0.1958762 0.65500003 14009296
-0.24702857 -0.1958762 0.65500003 14205905
-0.24578096 -0.1958762 0.65500003 14534870
-0.24453335 -0.1958762 0.65500003 14272466
-0.24328572 -0.1958762 0.65500003 14404052
-0.24277714 -0.19647428 0.65700001 14205909
-0.24152571 -0.19647428 0.65700001 14140116
-0.24027428 -0.19647428 0.65700001 14140882
-0.23902285 -0.19647428 0.65700001 14075089
-0.23777144 -0.19647428 0.65700001 14206157
-0.23688 -0.19677335 0.65800005 14271950
-0.23562668 -0.19677335 0.65800005 14337745
-0.23437336 -0.19677335 0.65800005 14732503
-0.23312001 -0.19677335 0.65800005 14339024
-0.23186669 -0.19677335 0.65800005 14404817
-0.23061334 -0.19677335 0.65800005 14206673
-0.22936001 -0.19677335 0.65800005 14206673
-0.22810669 -0.19677335 0.65800005 14206673
-0.22685334 -0.19677335 0.65800005 14272466
-0.22560002 -0.19677335 0.65800005 14272466
-0.22434668 -0.19677335 0.65800005 14206673
-0.22343239 -0.19707239 0.65900004 13943253
-0.22217715 -0.19707239 0.65900004 14403804
-0.22092192 -0.19707239 0.65900004 14206677
-0.21966667 -0.19707239 0.65900004 14009298
-0.21907428 -0.19767047 0.66100001 14338261
-0.21781525 -0.19767047 0.66100001 14601433
-0.21655619 -0.19767047 0.66100001 14404054
-0.21529716 -0.19767047 0.66100001 14733019
-0.2140381 -0.19767047 0.66100001 14864089
-0.21277905 -0.19767047 0.66100001 14995675
-0.21152 -0.19767047 0.66100001 14601683
-0.21026096 -0.19767047 0.66100001 14733269
-0.20900191 -0.19767047 0.66100001 14602196
-0.20774285 -0.19767047 0.66100001 14602196
-0.2067962 -0.19796953 0.66200006 14404052
-0.20553526 -0.19796953 0.66200006 14601431
-0.20427431 -0.19796953 0.66200006 14273231
-0.20301335 -0.19796953 0.66200006 14470610
-0.20175241 -0.19796953 0.66200006 14601683
-0.20049144 -0.19796953 0.66200006 14404304
-0.19923049 -0.19796953 0.66200006 14798548
-0.19796953 -0.19796953 0.66200006 14995927
-0.19670859 -0.19796953 0.66200006 14864341
-0.19544764 -0.19796953 0.66200006 14864341
-0.19418667 -0.19796953 0.66200006 14733269
-0.19292574 -0.19796953 0.66200006 15062234
-0.19166477 -0.19796953 0.66200006 14930134
-0.19040382 -0.19796953 0.66200006 14995927
-0.18914288 -0.19796953 0.66200006 14798296
-0.18816572 -0.19826859 0.66300005 15061468
-0.18718477 -0.19856763 0.66400003 14667478
-0.18592 -0.19856763 0.66400003 14864857
-0.18465525 -0.19856763 0.66400003 14799312
-0.18339048 -0.19856763 0.66400003 14996691
-0.18212572 -0.19856763 0.66400003 14799062
-0.18086095 -0.19856763 0.66400003 14864855
-0.1795962 -0.19856763 0.66400003 14733532
-0.17833145 -0.19856763 0.66400003 14996704
-0.17706668 -0.19856763 0.66400003 14865368
-0.17580192 -0.19856763 0.66400003 14931161
-0.17453715 -0.19856763 0.66400003 14996693
-0.1737943 -0.19916572 0.66600001 15128279
-0.17252572 -0.19916572 0.66600001 15259099
-0.17125715 -0.19916572 0.66600001 15588064
-0.16998856 -0.19916572 0.66600001 14733530
-0.16872001 -0.19916572 0.66600001 14733530
-0.16745143 -0.19916572 0.66600001 14930659
-0.16618286 -0.19916572 0.66600001 15259624
-0.16516192 -0.19946478 0.66700006 14996700
-0.16389143 -0.19946478 0.66700006 15194079
-0.16262096 -0.19946478 0.66700006 15062747
-0.16135049 -0.19946478 0.66700006 15391712
-0.16008002 -0.19946478 0.66700006 15061732
-0.15880954 -0.19946478 0.66700006 14930146
-0.15753905 -0.19946478 0.66700006 15127261
-0.15626858 -0.19946478 0.66700006 15127261
-0.15499811 -0.19946478 0.66700006 15193054
-0.15372764 -0.19946478 0.66700006 15390433
-0.15268572 -0.19976382 0.66800004 14864607
-0.15141334 -0.19976382 0.66800004 15325158
-0.15014096 -0.19976382 0.66800004 15259872
-0.14886858 -0.19976382 0.66800004 15325665
-0.1475962 -0.19976382 0.66800004 15258593
-0.14676191 -0.20036191 0.67000002 15719144
-0.14548573 -0.20036191 0.67000002 15456226
-0.14420952 -0.20036191 0.67000002 15587812
-0.14293334 -0.20036191 0.67000002 15391201
-0.14186858 -0.20066094 0.671 15391201
-0.14038096 -0.20036191 0.67000002 15391201
-0.13910475 -0.20036191 0.67000002 15588580
-0.13782857 -0.20036191 0.67000002 15390951
-0.13655238 -0.20036191 0.67000002 15325158
-0.13547809 -0.20066094 0.671 15324386
-0.13420001 -0.20066094 0.671 15587558
-0.13292189 -0.20066094 0.671 15456992
-0.13184001 -0.20096001 0.67200005 15456992
-0.13056001 -0.20096001 0.67200005 15456476
-0.12928 -0.20096001 0.67200005 15390683
-0.12800001 -0.20096001 0.67200005 15258593
-0.12672001 -0.20096001 0.67200005 15192800
-0.12544 -0.20096001 0.67200005 15325919
-0.12416001 -0.20096001 0.67200005 15523298
-0.12288001 -0.20096001 0.67200005 15326178
-0.1219619 -0.2015581 0.67400002 15655143
-0.1206781 -0.2015581 0.67400002 15654121
-0.11939429 -0.2015581 0.67400002 15983086
-0.11811048 -0.2015581 0.67400002 15456224
-0.11682667 -0.2015581 0.67400002 15324638
-0.11554287 -0.2015581 0.67400002 15391201
-0.11425906 -0.2015581 0.67400002 15917545
-0.11297525 -0.2015581 0.67400002 15456992
-0.11185715 -0.20185713 0.67500001 15588578
-0.11057143 -0.20185713 0.67500001 15457755
-0.10928571 -0.20185713 0.67500001 15457755
-0.10816 -0.20215622 0.67600006 15588837
-0.10687239 -0.20215622 0.67600006 15654630
-0.10558476 -0.20215622 0.67600006 15522787
-0.10429715 -0.20215622 0.67600006 15325408
-0.10300954 -0.20215622 0.67600006 15390685
-0.10172191 -0.20215622 0.67600006 15653857
-0.10073143 -0.2027543 0.67800003 15588326
-0.099440001 -0.2027543 0.67800003 15522533
-0.098148577 -0.2027543 0.67800003 15588837
-0.096857145 -0.2027543 0.67800003 15852009
-0.095565714 -0.2027543 0.67800003 15590113
-0.094413333 -0.20305334 0.67900002 15655906
-0.093120001 -0.20305334 0.67900002 15720677
-0.091826662 -0.20305334 0.67900002 15720677
-0.090666667 -0.20335238 0.68000001 15720425
-0.089371428 -0.20335238 0.68000001 16049390
-0.088076189 -0.20335238 0.68000001 15786218
-0.08678095 -0.20335238 0.68000001 15983597
-0.085485712 -0.20335238 0.68000001 15785959
-0.0844381 -0.20395048 0.68200004 15851752
-0.083139054 -0.20395048 0.68200004 15720418
-0.081840008 -0.20395048 0.68200004 15852004
-0.080540963 -0.20395048 0.68200004 15918054
-0.079358101 -0.20424953 0.68300003 15983847
-0.078057148 -0.20424953 0.68300003 15785959
-0.076756194 -0.20424953 0.68300003 15983338
-0.075455241 -0.20424953 0.68300003 15917802
-0.074154288 -0.20424953 0.68300003 15720423
-0.072853334 -0.20424953 0.68300003 15785707
-0.071447626 -0.20395048 0.68200004 15785707
-0.07014858 -0.20395048 0.68200004 15785707
-0.068950474 -0.20424953 0.68300003 15917293
-0.067649528 -0.20424953 0.68300003 15720934
-0.066348568 -0.20424953 0.68300003 15786727
-0.065142855 -0.20454857 0.68400002 15523559
-0.063839994 -0.20454857 0.68400002 15918317
-0.062537141 -0.20454857 0.68400002 15720936
-0.061413333 -0.20514669 0.68600005 15918315
-0.060106669 -0.20514669 0.68600005 15852774
-0.058800004 -0.20514669 0.68600005 15852774
-0.057493336 -0.20514669 0.68600005 15589350
-0.056186672 -0.20514669 0.68600005 15852522
-0.054880004 -0.20514669 0.68600005 15786727
-0.053573336 -0.20514669 0.68600005 15523555
-0.052266672 -0.20514669 0.68600005 15654632
-0.050960004 -0.20514669 0.68600005 16115183
-0.049725715 -0.20544572 0.68700004 15786979
-0.048417144 -0.20544572 0.68700004 15655393
-0.047108576 -0.20544572 0.68700004 15786470
-0.045800004 -0.20544572 0.68700004 16115435
-0.044491433 -0.20544572 0.68700004 15853283
-0.043182861 -0.20544572 0.68700004 15721697
-0.041935239 -0.20574477 0.68800002 15852011
-0.040624764 -0.20574477 0.68800002 16246769
-0.039314289 -0.20574477 0.68800002 15918313
-0.038003813 -0.20574477 0.68800002 15918313
-0.036693335 -0.20574477 0.68800002 15918313
-0.035382856 -0.20574477 0.68800002 16115692
-0.03402286 -0.20544572 0.68700004 15918313
-0.032714289 -0.20544572 0.68700004 15655141
-0.031405717 -0.20544572 0.68700004 15720936
-0.030097144 -0.20544572 0.68700004 15918315
-0.028788572 -0.20544572 0.68700004 15852772
-0.027520001 -0.20574477 0.68800002 15918565
-0.026209524 -0.20574477 0.68800002 15786470
-0.024971429 -0.20634288 0.69000006 15786470
-0.023657145 -0.20634288 0.69000006 15786470
-0.022342859 -0.20634288 0.69000006 15457505
-0.021028573 -0.20634288 0.69000006 15785705
-0.019714287 -0.20634288 0.69000006 16443635
-0.018426668 -0.20664191 0.69100004 15852524
-0.017110478 -0.20664191 0.69100004 15786731
-0.015794287 -0.20664191 0.69100004 15720927
-0.014478096 -0.20664191 0.69100004 15655134
-0.013142858 -0.20634288 0.69000006 15917802
-0.011828572 -0.20634288 0.69000006 15917802
-0.010514286 -0.20634288 0.69000006 15918828
-0.0092133339 -0.20664191 0.69100004 15918828
-0.0078971433 -0.20664191 0.69100004 15918826
-0.0065809526 -0.20664191 0.69100004 15984619
-0.0052647623 -0.20664191 0.69100004 15984619
-0.0039599999 -0.20724 0.69300002 15918826
-0.0026400001 -0.20724 0.69300002 15853292
-0.00132 -0.20724 0.69300002 15984878
0 -0.20753905 0.69400001 15852520
0.0013219047 -0.20753905 0.69400001 15852520
0.0026438094 -0.20753905 0.69400001 15786470
0.0039657145 -0.20753905 0.69400001 15720677
0.0052876188 -0.20753905 0.69400001 15852263
0.0066095237 -0.20753905 0.69400001 15786470
0.007931429 -0.20753905 0.69400001 15852009
0.0092533324 -0.20753905 0.69400001 16180974
0.010575238 -0.20753905 0.69400001 15985132
0.011897143 -0.20753905 0.69400001 16248304
0.013257144 -0.20813714 0.69600004 15985641
0.014582858 -0.20813714 0.69600004 15985641
0.015908571 -0.20813714 0.69600004 15918826
0.017234286 -0.20813714 0.69600004 15853033
0.018586667 -0.20843619 0.69700003 15786979
0.019914286 -0.20843619 0.69700003 15852772
0.021241905 -0.20843619 0.69700003 15918313
0.022569526 -0.20843619 0.69700003 15918313
0.023897143 -0.20843619 0.69700003 15918567
0.025224762 -0.20843619 0.69700003 15918567
0.026590476 -0.20873523 0.69800001 15918826
0.02792 -0.20873523 0.69800001 15853033
0.029249525 -0.20873523 0.69800001 15852520
0.030579047 -0.20873523 0.69800001 16049899
0.031908572 -0.20873523 0.69800001 15919335
0.033238098 -0.20873523 0.69800001 15919335
0.034567621 -0.20873523 0.69800001 15919337
0.036000002 -0.20933335 0.70000005 15787751
0.037333336 -0.20933335 0.70000005 15918313
0.038666669 -0.20933335 0.70000005 15984106
0.040000003 -0.20933335 0.70000005 15853033
0.041333333 -0.20933335 0.70000005 15721447
0.04266667 -0.20933335 0.70000005 15852520
0.04406286 -0.2096324 0.70100003 16115692
0.045398097 -0.2096324 0.70100003 15852772
0.046733335 -0.2096324 0.70100003 16050151
0.048068576 -0.2096324 0.70100003 15853031
0.049544759 -0.21023048 0.70300001 15918824
0.050883811 -0.21023048 0.70300001 15984110
0.052222855 -0.21023048 0.70300001 15918317
0.053561907 -0.21023048 0.70300001 15853035
0.054900952 -0.21023048 0.70300001 15918828
0.05624 -0.21023048 0.70300001 15984619
0.057579048 -0.21023048 0.70300001 16050412
0.059001908 -0.21052954 0.70400006 15917804
0.060342859 -0.21052954 0.70400006 15852011
0.061683815 -0.21052954 0.70400006 15852263
0.063024767 -0.21052954 0.70400006 15983849
0.064365722 -0.21052954 0.70400006 15919339
0.06570667 -0.21052954 0.70400006 15853546
0.067047626 -0.21052954 0.70400006 15655913
0.068388574 -0.21052954 0.70400006 15655913
0.069729529 -0.21052954 0.70400006 15919848
0.071272388 -0.21112762 0.70600003 16051434
0.072617143 -0.21112762 0.70600003 15853033
0.074066669 -0.21142666 0.70700002 15787240
0.075413339 -0.21142666 0.70700002 15918828
0.076760001 -0.21142666 0.70700002 15984621
0.078217141 -0.21172571 0.708 15984367
0.079565711 -0.21172571 0.708 15852781
0.080914281 -0.21172571 0.708 15853035
0.082262859 -0.21172571 0.708 16050414
0.083611429 -0.21172571 0.708 15919339
0.084959999 -0.21172571 0.708 15919339
0.086308569 -0.21172571 0.708 15984621
0.087657146 -0.21172571 0.708 16182000
0.089005716 -0.21172571 0.708 15919846
0.090354286 -0.21172571 0.708 16051432
0.091961905 -0.21232383 0.71000004 15919594
0.09331429 -0.21232383 0.71000004 15853801
0.094666675 -0.21232383 0.71000004 15853546
0.096019052 -0.21232383 0.71000004 15656167
0.097508572 -0.21262287 0.71100003 15918826
0.098862864 -0.21262287 0.71100003 16050412
0.10007619 -0.21232383 0.71000004 15655143
0.10142858 -0.21232383 0.71000004 15655143
0.10278096 -0.21232383 0.71000004 15720936
0.10413334 -0.21232383 0.71000004 15720936
0.10563429 -0.21262287 0.71100003 15721186
0.10698857 -0.21262287 0.71100003 15852772
0.10834286 -0.21262287 0.71100003 15656167
0.11000572 -0.21322097 0.71300006 15590374
0.11136381 -0.21322097 0.71300006 15721960
0.11272191 -0.21322097 0.71300006 15787753
0.11424001 -0.21352001 0.71400005 15720934
0.1154381 -0.21322097 0.71300006 15655141
0.1167962 -0.21322097 0.71300006 15786729
0.11815429 -0.21322097 0.71300006 16115694
0.11951239 -0.21322097 0.71300006 15984619
0.12087049 -0.21322097 0.71300006 16050412
0.1224 -0.21352001 0.71400005 15918313
0.12376001 -0.21352001 0.71400005 16049899
0.12547047 -0.21411809 0.71600002 15720936
0.12683429 -0.21411809 0.71600002 15589350
0.1281981 -0.21411809 0.71600002 15524068
0.12974285 -0.21441714 0.71700001 15589861
0.13110857 -0.21441714 0.71700001 15721449
0.13247429 -0.21441714 0.71700001 15984621
0.13383999 -0.21441714 0.71700001 15656167
0.13520572 -0.21441714 0.71700001 15656167
0.13657142 -0.21441714 0.71700001 15919339
0.13793714 -0.21441714 0.71700001 15985132
0.13930286 -0.21441714 0.71700001 15918826
0.14066857 -0.21441714 0.71700001 15853033
0.14203429 -0.21441714 0.71700001 15788001
0.1434 -0.21441714 0.71700001 15919587
0.1447657 -0.21441714 0.71700001 15590372
0.14613143 -0.21441714 0.71700001 15919337
0.14790858 -0.21501525 0.71900004 15721960
0.1492781 -0.21501525 0.71900004 15524581
0.15064763 -0.21501525 0.71900004 15590113
0.15222858 -0.21531428 0.72000003 15787492
0.15359999 -0.21531428 0.72000003 15523555
0.15497142 -0.21531428 0.72000003 15918313
0.15634286 -0.21531428 0.72000003 15787753
0.15771429 -0.21531428 0.72000003 15919339
0.15908572 -0.21531428 0.72000003 15656167
0.16045715 -0.21531428 0.72000003 15787753
0.16182858 -0.21531428 0.72000003 15590122
0.16320001 -0.21531428 0.72000003 15524329
0.16457143 -0.21531428 0.72000003 15590374
0.16594286 -0.21531428 0.72000003 15853546
0.16777906 -0.2159124 0.72200006 15589863
0.1691543 -0.2159124 0.72200006 15655656
0.17052953 -0.2159124 0.72200006 15655656
0.17190477 -0.2159124 0.72200006 15721449
0.17328002 -0.2159124 0.72200006 15720934
0.17489716 -0.21621144 0.72300005 15786727
0.1762743 -0.21621144 0.72300005 15656167
0.17765144 -0.21621144 0.72300005 15327202
0.17952381 -0.21680953 0.72500002 15326950
0.18090478 -0.21680953 0.72500002 15392743
0.18178286 -0.21621144 0.72300005 15458784
0.18316001 -0.21621144 0.72300005 15261405
0.18453714 -0.21621144 0.72300005 15128799
0.18591429 -0.21621144 0.72300005 15457764
0.18780953 -0.21680953 0.72500002 15524581
0.18919048 -0.21680953 0.72500002 15524581
0.19057143 -0.21680953 0.72500002 15326948
0.19248192 -0.21740763 0.72700006 15326948
0.19386667 -0.21740763 0.72700006 15260387
0.19552 -0.21770668 0.72800004 15523559
0.19690667 -0.21770668 0.72800004 15457766
0.19829334 -0.21770668 0.72800004 15391973
0.19968002 -0.21770668 0.72800004 15392484
0.20106667 -0.21770668 0.72800004 15392484
0.20245335 -0.21770668 0.72800004 15261155
0.20384002 -0.21770668 0.72800004 15195362
0.20522667 -0.21770668 0.72800004 15128797
0.20718096 -0.21830475 0.73000002 15326176
0.20857142 -0.21830475 0.73000002 15261157
0.20996191 -0.21830475 0.73000002 15129571
0.21135239 -0.21830475 0.73000002 15261409
0.21303429 -0.2186038 0.73100001 15327202
0.21442667 -0.2186038 0.73100001 15261157
0.21640953 -0.21920192 0.73300004 15392743
0.21780573 -0.21920192 0.73300004 15063769
0.21920192 -0.21920192 0.73300004 15261148
0.2205981 -0.21920192 0.73300004 15130073
0.2219943 -0.21920192 0.73300004 15064280
0.22339047 -0.21920192 0.73300004 15129819
0.22478668 -0.21920192 0.73300004 15261405
0.22618288 -0.21920192 0.73300004 15195614
0.22757906 -0.21920192 0.73300004 15261407
0.22897525 -0.21920192 0.73300004 14800604
0.23037145 -0.21920192 0.73300004 14734811
0.2320838 -0.21950096 0.73400003 14800604
0.23348191 -0.21950096 0.73400003 15326948
0.23488 -0.21950096 0.73400003 14800102
0.2362781 -0.21950096 0.73400003 14668516
0.2376762 -0.21950096 0.73400003 14800343
0.2390743 -0.21950096 0.73400003 14866136
0.24047238 -0.21950096 0.73400003 14866136
0.24252954 -0.22009906 0.73600006 15129308
0.24393144 -0.22009906 0.73600006 14931418
0.24533336 -0.22009906 0.73600006 14931418
0.24673526 -0.22009906 0.73600006 14800856
0.24813715 -0.22009906 0.73600006 14735063
0.25021717 -0.22069716 0.73800004 14669268
0.25162286 -0.22069716 0.73800004 14669268
0.2530286 -0.22069716 0.73800004 14537173
0.25443429 -0.22069716 0.73800004 14800345
0.25584 -0.22069716 0.73800004 14471128
0.25724572 -0.22069716 0.73800004 14536921
0.25865144 -0.22069716 0.73800004 14536921
0.26005718 -0.22069716 0.73800004 14536921
0.26146287 -0.22069716 0.73800004 14471641
0.26322478 -0.2209962 0.73900002 14800606
0.2646324 -0.2209962 0.73900002 14604249
0.26604 -0.2209962 0.73900002 14538456
0.26744762 -0.2209962 0.73900002 14208721
0.26885524 -0.2209962 0.73900002 14340307
0.27026287 -0.2209962 0.73900002 14471128
0.27167046 -0.2209962 0.73900002 14471128
0.27307808 -0.2209962 0.73900002 14471128
0.27448574 -0.2209962 0.73900002 14997472
0.27589336 -0.2209962 0.73900002 14734554
0.27805144 -0.22159427 0.74100006 14734554
0.27946287 -0.22159427 0.74100006 14470617
0.28087431 -0.22159427 0.74100006 14404824
0.28266668 -0.22189334 0.74200004 14141661
0.28408003 -0.22189334 0.74200004 14536419
0.28549334 -0.22189334 0.74200004 14339796
0.28768 -0.22249144 0.74400002 14274003
0.28909713 -0.22249144 0.74400002 14405078
0.29051429 -0.22249144 0.74400002 14470871
0.29193145 -0.22249144 0.74400002 14339031
0.29334858 -0.22249144 0.74400002 14339031
0.29476571 -0.22249144 0.74400002 14141906
0.29697907 -0.22308956 0.74600005 14207699
0.29840001 -0.22308956 0.74600005 14405074
0.29982096 -0.22308956 0.74600005 14405074
0.3012419 -0.22308956 0.74600005 14142676
0.30266288 -0.22308956 0.74600005 14208469
0.30408382 -0.22308956 0.74600005 14142415
0.30591431 -0.22338858 0.74700004 14142415
0.30733714 -0.22338858 0.74700004 13813466
0.30876002 -0.22338858 0.74700004 13484501
0.31018287 -0.22338858 0.74700004 14010320
0.31244001 -0.22398669 0.74900001 14076113
0.31386667 -0.22398669 0.74900001 14075859
0.31529334 -0.22398669 0.74900001 14075859
0.31672001 -0.22398669 0.74900001 14076370
0.31814668 -0.22398669 0.74900001 14010577
0.31957334 -0.22398669 0.74900001 13879761
0.32100001 -0.22398669 0.74900001 14077140
0.32242668 -0.22398669 0.74900001 14011597
0.32428575 -0.22428572 0.75000006 14077390
0.32571432 -0.22428572 0.75000006 13813457
0.32714289 -0.22428572 0.75000006 13813457
0.32944763 -0.22488379 0.75200003 13879502
0.33088002 -0.22488379 0.75200003 14142674
0.33231238 -0.22488379 0.75200003 13812689
0.33374476 -0.22488379 0.75200003 13812689
0.33517715 -0.22488379 0.75200003 13812687
0.33750477 -0.2254819 0.75400001 14010066
0.33894095 -0.2254819 0.75400001 13746896
0.3408286 -0.22578098 0.75500005 14273240
0.34317333 -0.22637905 0.75700003 14076363
0.34461525 -0.22637905 0.75700003 14076363
0.34605715 -0.22637905 0.75700003 13682384
0.34749907 -0.22637905 0.75700003 13682384
0.34801906 -0.22578098 0.75500005 13682125
0.34945717 -0.22578098 0.75500005 13616332
0.35089526 -0.22578098 0.75500005 13616071
0.35233334 -0.22578098 0.75500005 13747657
0.35377145 -0.22578098 0.75500005 13747407
0.35520956 -0.22578098 0.75500005 14076372
0.35664764 -0.22578098 0.75500005 13550287
0.3590343 -0.22637905 0.75700003 13616080
0.3604762 -0.22637905 0.75700003 13484998
0.36191809 -0.22637905 0.75700003 13550791
0.36336002 -0.22637905 0.75700003 13550798
0.36576575 -0.22697715 0.75900006 13945556
0.36721143 -0.22697715 0.75900006 13813450
0.36865717 -0.22697715 0.75900006 13879243
0.37010288 -0.22697715 0.75900006 13681353
0.37154859 -0.22697715 0.75900006 13747146
0.37299433 -0.22697715 0.75900006 13287619
0.37444001 -0.22697715 0.75900006 13287619
0.37588573 -0.22697715 0.75900006 13287376
0.37733147 -0.22697715 0.75900006 13616341
0.37877718 -0.22697715 0.75900006 13485003
0.38022289 -0.22697715 0.75900006 13682382
0.3816686 -0.22697715 0.75900006 13287367
0.38311431 -0.22697715 0.75900006 13287367
0.38456002 -0.22697715 0.75900006 13352906
0.38600573 -0.22697715 0.75900006 13681871
0.38745147 -0.22697715 0.75900006 13287117
0.38992193 -0.22757524 0.76100004 13484496
0.39137146 -0.22757524 0.76100004 13550035
-0.38765717 -0.18898286 0.63600004 12036537
-0.38644573 -0.18898286 0.63600004 12497088
-0.38462862 -0.18868572 0.63500005 12497347
-0.38281524 -0.18838856 0.634 12497347
-0.38160759 -0.18838856 0.634 12563142
-0.37920001 -0.18779428 0.63200003 12694728
-0.37799621 -0.18779428 0.63200003 11971255
-0.3767924 -0.18779428 0.63200003 12563392
-0.37677714 -0.18838856 0.634 12628672
-0.37556952 -0.18838856 0.634 12826051
-0.3743619 -0.18838856 0.634 12760258
-0.37315428 -0.18838856 0.634 12760258
-0.37312004 -0.18898286 0.63600004 12694208
-0.37190861 -0.18898286 0.63600004 12694208
-0.37128001 -0.18928 0.63700002 12694208
-0.37006667 -0.18928 0.63700002 12891587
-0.3682743 -0.18898286 0.63600004 12496316
-0.36706287 -0.18898286 0.63600004 12759488
-0.36585143 -0.18898286 0.63600004 13022660
-0.36464 -0.18898286 0.63600004 12956867
-0.36342859 -0.18898286 0.63600004 12628163
-0.36221716 -0.18898286 0.63600004 12891335
-0.36100575 -0.18898286 0.63600004 12563392
-0.35979432 -0.18898286 0.63600004 12694978
-0.35858288 -0.18898286 0.63600004 12760258
-0.35793334 -0.18928 0.63700002 12891844
-0.35672 -0.18928 0.63700002 12760001
-0.35550669 -0.18928 0.63700002 12825794
-0.35429335 -0.18928 0.63700002 12694208
-0.35308 -0.18928 0.63700002 12825794
-0.35186669 -0.18928 0.63700002 12628415
-0.35065332 -0.18928 0.63700002 12760001
-0.34998858 -0.18957715 0.63800001 12826051
-0.34877333 -0.18957715 0.63800001 13089223
-0.34755808 -0.18957715 0.63800001 13155520
-0.34742859 -0.19017144 0.64000005 13089727
-0.34620953 -0.19017144 0.64000005 12826562
-0.34499049 -0.19017144 0.64000005 12958148
-0.34430858 -0.19046858 0.64100003 12497606
-0.34308761 -0.19046858 0.64100003 12563399
-0.34186667 -0.19046858 0.64100003 12760258
-0.34064573 -0.19046858 0.64100003 12957637
-0.33995429 -0.19076571 0.64200002 12825794
-0.33873144 -0.19076571 0.64200002 12957380
-0.33750856 -0.19076571 0.64200002 12694208
-0.33628571 -0.19076571 0.64200002 12891587
-0.33506286 -0.19076571 0.64200002 12760001
-0.33436 -0.19106285 0.64300001 12891587
-0.33313522 -0.19106285 0.64300001 13022403
-0.33191049 -0.19106285 0.64300001 13153989
-0.3306857 -0.19106285 0.64300001 13087692
-0.32946095 -0.19106285 0.64300001 13153485
-0.32874668 -0.19136001 0.64400005 13023173
-0.32752001 -0.19136001 0.64400005 12957380
-0.32629335 -0.19136001 0.64400005 12826053
-0.32607618 -0.19195428 0.64600003 12891846
-0.32484573 -0.19195428 0.64600003 12892098
-0.32361525 -0.19195428 0.64600003 13089477
-0.32238474 -0.19195428 0.64600003 13089736
-0.3211543 -0.19195428 0.64600003 13023943
-0.31992382 -0.19195428 0.64600003 13089223
-0.31869334 -0.19195428 0.64600003 13089223
-0.31746289 -0.19195428 0.64600003 13088712
-0.31623238 -0.19195428 0.64600003 13154505
-0.3150019 -0.19195428 0.64600003 13088453
-0.31425714 -0.19225143 0.64700001 13351625
-0.31350857 -0.19254856 0.648 13088966
-0.31227428 -0.19254856 0.648 13220552
-0.31152004 -0.19284573 0.64900005 13155016
-0.31028384 -0.19284573 0.64900005 13286602
-0.30904764 -0.19284573 0.64900005 12957380
-0.30781144 -0.19284573 0.64900005 13483724
-0.30657527 -0.19284573 0.64900005 13550026
-0.30533907 -0.19284573 0.64900005 13418440
-0.30410287 -0.19284573 0.64900005 13088966
-0.30286667 -0.19284573 0.64900005 13286345
-0.3016305 -0.19284573 0.64900005 13483211
-0.30039433 -0.19284573 0.64900005 13483211
-0.29915813 -0.19284573 0.64900005 13416907
-0.29838097 -0.19314288 0.65000004 13482700
-0.29714289 -0.19314288 0.65000004 13613770
-0.29590476 -0.19314288 0.65000004 13613770
-0.29466668 -0.19314288 0.65000004 13351114
-0.29342857 -0.19314288 0.65000004 13745872
-0.29308954 -0.19373713 0.65200001 13680338
-0.29095241 -0.19314288 0.65000004 13746131
-0.28971431 -0.19314288 0.65000004 13746637
-0.2884762 -0.19314288 0.65000004 13812430
-0.28723809 -0.19314288 0.65000004 13418183
-0.28600001 -0.19314288 0.65000004 13352390
-0.28476194 -0.19314288 0.65000004 13352145
-0.28439617 -0.19373713 0.65200001 13483731
-0.28315428 -0.19373713 0.65200001 13483465
-0.28191239 -0.19373713 0.65200001 13746637
-0.28110099 -0.19403431 0.65300006 13483461
-0.27985719 -0.19403431 0.65300006 13680840
-0.27904001 -0.19433145 0.65400004 13746896
-0.27736956 -0.19403431 0.65300006 13746896
-0.27612576 -0.19403431 0.65300006 13680849
-0.27488193 -0.19403431 0.65300006 13680849
-0.27405715 -0.19433145 0.65400004 13615308
-0.27281144 -0.19433145 0.65400004 13615308
-0.27156574 -0.19433145 0.65400004 13746637
-0.27032003 -0.19433145 0.65400004 13746637
-0.26907429 -0.19433145 0.65400004 13417159
-0.26823813 -0.19462858 0.65500003 13614538
-0.26699051 -0.19462858 0.65500003 14141645
-0.26533714 -0.19433145 0.65400004 13746887
-0.26409143 -0.19433145 0.65400004 13482952
-0.26284572 -0.19433145 0.65400004 13746124
-0.26160002 -0.19433145 0.65400004 14008530
-0.26035428 -0.19433145 0.65400004 14140116
-0.2591086 -0.19433145 0.65400004 14073803
-0.25746858 -0.19403431 0.65300006 14271182
-0.25622478 -0.19403431 0.65300006 14205648
-0.25498095 -0.19403431 0.65300006 14403027
-0.25412574 -0.19433145 0.65400004 13944016
-0.25288001 -0.19433145 0.65400004 13878223
-0.25201908 -0.19462858 0.65500003 13812176
-0.25077143 -0.19462858 0.65500003 13812176
-0.2495238 -0.19462858 0.65500003 13812689
-0.24903427 -0.19522287 0.65700001 13878482
-0.24778286 -0.19522287 0.65700001 14075089
-0.24653143 -0.19522287 0.65700001 14338261
-0.24528 -0.19522287 0.65700001 14009296
-0.24402858 -0.19522287 0.65700001 14009296
-0.24277714 -0.19522287 0.65700001 14074323
-0.24152571 -0.19522287 0.65700001 14337495
-0.24027428 -0.19522287 0.65700001 14076113
-0.23938668 -0.19552001 0.65800005 13944527
-0.23849525 -0.19581716 0.65900004 14009546
-0.23724002 -0.19581716 0.65900004 14075339
-0.23598476 -0.19581716 0.65900004 13877962
-0.23472954 -0.19581716 0.65900004 14404306
-0.2334743 -0.19581716 0.65900004 13944527
-0.23221906 -0.19581716 0.65900004 14010320
-0.23096381 -0.19581716 0.65900004 14206675
-0.22970858 -0.19581716 0.65900004 14206675
-0.22845334 -0.19581716 0.65900004 14337491
-0.22719812 -0.19581716 0.65900004 14600663
-0.22594288 -0.19581716 0.65900004 14667737
-0.22536953 -0.19641143 0.66100001 14207186
-0.22411048 -0.19641143 0.66100001 13877458
-0.22285143 -0.19641143 0.66100001 14206423
-0.22159238 -0.19641143 0.66100001 14009298
-0.22033334 -0.19641143 0.66100001 14140884
-0.21940574 -0.19670859 0.66200006 14404054
-0.21814477 -0.19670859 0.66200006 14338261
-0.21688384 -0.19670859 0.66200006 14075091
-0.21529716 -0.19641143 0.66100001 14338263
-0.2140381 -0.19641143 0.66100001 14338263
-0.21277905 -0.19641143 0.66100001 14338263
-0.21152 -0.19641143 0.66100001 14338261
-0.21026096 -0.19641143 0.66100001 14601433
-0.20900191 -0.19641143 0.66100001 14338772
-0.20805717 -0.19670859 0.66200006 14601944
-0.2067962 -0.19670859 0.66200006 14404054
-0.20584573 -0.19700573 0.66300005 14535640
-0.20458288 -0.19700573 0.66300005 14271950
-0.20332001 -0.19700573 0.66300005 14666708
-0.20205715 -0.19700573 0.66300005 14535638
-0.20079428 -0.19700573 0.66300005 14535638
-0.19953144 -0.19700573 0.66300005 14863835
-0.19826859 -0.19700573 0.66300005 14995421
-0.19700573 -0.19700573 0.66300005 14863835
-0.19544764 -0.19670859 0.66200006 14929628
-0.19418667 -0.19670859 0.66200006 14667224
-0.19321716 -0.19700573 0.66300005 14798810
-0.1919543 -0.19700573 0.66300005 14732501
-0.19069144 -0.19700573 0.66300005 14798294
-0.1897143 -0.19730286 0.66400003 14731990
-0.18844953 -0.19730286 0.66400003 14929369
-0.18718477 -0.19730286 0.66400003 14601169
-0.18648 -0.19789717 0.66600001 14666962
-0.18521142 -0.19789717 0.66600001 14666960
-0.18394285 -0.19789717 0.66600001 14864339
-0.18267429 -0.19789717 0.66600001 14733017
-0.18140571 -0.19789717 0.66600001 14733017
-0.18013714 -0.19789717 0.66600001 14535640
-0.17886856 -0.19789717 0.66600001 14667226
-0.1776 -0.19789717 0.66600001 14535890
-0.17633142 -0.19789717 0.66600001 14864855
-0.17506287 -0.19789717 0.66600001 14930396
-0.1737943 -0.19789717 0.66600001 14930396
-0.17252572 -0.19789717 0.66600001 14995675
-0.17151429 -0.1981943 0.66700006 15061468
-0.17024381 -0.1981943 0.66700006 14995421
-0.16897334 -0.1981943 0.66700006 14995421
-0.16770287 -0.1981943 0.66700006 14930398
-0.1664324 -0.1981943 0.66700006 14996191
-0.16516192 -0.1981943 0.66700006 14799062
-0.16389143 -0.1981943 0.66700006 15062234
-0.16286477 -0.19849144 0.66800004 14799575
-0.16135049 -0.1981943 0.66700006 15128540
-0.16008002 -0.1981943 0.66700006 14930396
-0.15904763 -0.19849144 0.66800004 14996189
-0.15777525 -0.19849144 0.66800004 15061468
-0.15650286 -0.19849144 0.66800004 15127261
-0.15523048 -0.19849144 0.66800004 15259872
-0.1539581 -0.19849144 0.66800004 15194079
-0.15268572 -0.19849144 0.66800004 14667476
-0.15141334 -0.19849144 0.66800004 15259613
-0.15059048 -0.19908571 0.67000002 15128288
-0.14931428 -0.19908571 0.67000002 15128288
-0.14803809 -0.19908571 0.67000002 14929882
-0.14698096 -0.19938286 0.671 15258847
-0.14570287 -0.19938286 0.671 15127261
-0.14442475 -0.19938286 0.671 15193054
-0.14314666 -0.19938286 0.671 14995162
-0.14186858 -0.19938286 0.671 15521506
-0.14059047 -0.19938286 0.671 15260385
-0.13931239 -0.19938286 0.671 15260385
-0.13803428 -0.19938286 0.671 15259874
-0.13675618 -0.19938286 0.671 15259874
-0.13568 -0.19968002 0.67200005 15258845
-0.13440001 -0.19968002 0.67200005 15587810
-0.13312002 -0.19968002 0.67200005 15522785
-0.13184001 -0.19968002 0.67200005 15522785
-0.13056001 -0.19968002 0.67200005 15588064
-0.12928 -0.19968002 0.67200005 15456478
-0.12800001 -0.19968002 0.67200005 14995927
-0.12672001 -0.19968002 0.67200005 15259099
-0.12581334 -0.20027429 0.67400002 15457503
-0.12452953 -0.20027429 0.67400002 15391710
-0.12324572 -0.20027429 0.67400002 15325919
-0.12214286 -0.20057143 0.67500001 15589091
-0.12085714 -0.20057143 0.67500001 15522019
-0.11957143 -0.20057143 0.67500001 15587812
-0.11828572 -0.20057143 0.67500001 15324118
-0.117 -0.20057143 0.67500001 15653083
-0.11571428 -0.20057143 0.67500001 15522271
-0.11442857 -0.20057143 0.67500001 15719650
-0.11314286 -0.20057143 0.67500001 15260126
-0.11185715 -0.20057143 0.67500001 15391712
-0.11073525 -0.20086859 0.67600006 15392221
-0.10944763 -0.20086859 0.67600006 15458014
-0.10816 -0.20086859 0.67600006 15259361
-0.10718857 -0.20146286 0.67800003 15522533
-0.10589715 -0.20146286 0.67800003 15588580
-0.10460572 -0.20146286 0.67800003 15391201
-0.10331429 -0.20146286 0.67800003 15258586
-0.10202286 -0.20146286 0.67800003 15784930
-0.10073143 -0.20146286 0.67800003 15850725
-0.099440001 -0.20146286 0.67800003 15916518
-0.098148577 -0.20146286 0.67800003 15654630
-0.096857145 -0.20146286 0.67800003 15391458
-0.095706671 -0.20176001 0.67900002 15458275
-0.094413333 -0.20176001 0.67900002 15655654
-0.093257137 -0.20205714 0.68000001 15851750
-0.091961898 -0.20205714 0.68000001 15851750
-0.090666667 -0.20205714 0.68000001 15785191
-0.089634292 -0.20265144 0.68200004 15982570
-0.088335246 -0.20265144 0.68200004 15588326
-0.0870362 -0.20265144 0.68200004 15654119
-0.085737146 -0.20265144 0.68200004 15588064
-0.0844381 -0.20265144 0.68200004 15982822
-0.083260953 -0.20294857 0.68300003 15786211
-0.081960008 -0.20294857 0.68300003 15786211
-0.080659047 -0.20294857 0.68300003 15785957
-0.079358101 -0.20294857 0.68300003 15785957
-0.078057148 -0.20294857 0.68300003 15522017
-0.076756194 -0.20294857 0.68300003 16114154
-0.075455241 -0.20294857 0.68300003 15917804
-0.074154288 -0.20294857 0.68300003 15720425
-0.072853334 -0.20294857 0.68300003 15720164
-0.071552388 -0.20294857 0.68300003 15720164
-0.070251428 -0.20294857 0.68300003 15654119
-0.069051422 -0.20324571 0.68400002 15851498
-0.067748569 -0.20324571 0.68400002 15721188
-0.066445716 -0.20324571 0.68400002 15786981
-0.065333337 -0.20384002 0.68600005 15589098
-0.064026669 -0.20384002 0.68600005 15654891
-0.062720001 -0.20384002 0.68600005 15588580
-0.061502859 -0.20413715 0.68700004 15785959
-0.060194287 -0.20413715 0.68700004 15785957
-0.058885716 -0.20413715 0.68700004 15983336
-0.057493336 -0.20384002 0.68600005 15786470
-0.056186672 -0.20384002 0.68600005 15852263
-0.054960005 -0.20413715 0.68700004 15851752
-0.05365143 -0.20413715 0.68700004 15785959
-0.052342858 -0.20413715 0.68700004 15588580
-0.051034287 -0.20413715 0.68700004 16180717
-0.049725715 -0.20413715 0.68700004 15787238
-0.048417144 -0.20413715 0.68700004 15853031
-0.047108576 -0.20413715 0.68700004 15918313
-0.045866664 -0.20443429 0.68800002 16049899
-0.044556189 -0.20443429 0.68800002 15985130
-0.043245714 -0.20443429 0.68800002 15590372
-0.041935239 -0.20443429 0.68800002 15851498
-0.040742859 -0.20502858 0.69000006 15851498
-0.039428573 -0.20502858 0.69000006 15785957
-0.038114291 -0.20502858 0.69000006 16049129
-0.036800001 -0.20502858 0.69000006 15918826
-0.035485715 -0.20502858 0.69000006 16050412
-0.034072381 -0.20443429 0.68800002 15787240
-0.032761905 -0.20443429 0.68800002 15721447
-0.03145143 -0.20443429 0.68800002 15918313
-0.030140953 -0.20443429 0.68800002 15984106
-0.028830478 -0.20443429 0.68800002 15853285
-0.027600003 -0.20502858 0.69000006 15853285
-0.02632381 -0.20532572 0.69100004 15654884
-0.02500762 -0.20532572 0.69100004 15786470
-0.023691429 -0.20532572 0.69100004 15852263
-0.022375239 -0.20532572 0.69100004 15654884
-0.021059047 -0.20532572 0.69100004 15850723
-0.019742858 -0.20532572 0.69100004 16377067
-0.018426668 -0.20532572 0.69100004 15917804
-0.017110478 -0.20532572 0.69100004 15917804
-0.015794287 -0.20532572 0.69100004 15721186
-0.014478096 -0.20532572 0.69100004 15721186
-0.013161905 -0.20532572 0.69100004 15852520
-0.011845714 -0.20532572 0.69100004 15918313
-0.010529525 -0.20532572 0.69100004 15984108
-0.0092400005 -0.20592 0.69300002 16049901
-0.0079199998 -0.20592 0.69300002 15984619
-0.0066000004 -0.20592 0.69300002 15918826
-0.0052800002 -0.20592 0.69300002 15853546
-0.0039657145 -0.20621714 0.69400001 15721960
-0.0026438094 -0.20621714 0.69400001 15524329
-0.0013219047 -0.20621714 0.69400001 15919087
0 -0.20621714 0.69400001 15853546
0.0013219047 -0.20621714 0.69400001 15787753
0.0026438094 -0.20621714 0.69400001 15918313
0.0039657145 -0.20621714 0.69400001 15918313
0.0052876188 -0.20621714 0.69400001 15918828
0.006628572 -0.20681143 0.69600004 15853035
0.0079542855 -0.20681143 0.69600004 15851750
0.0092799999 -0.20681143 0.69600004 16049129
0.010605715 -0.20681143 0.69600004 15852009
0.01193143 -0.20681143 0.69600004 16049388
0.01327619 -0.20710857 0.69700003 15919337
0.01460381 -0.20710857 0.69700003 15919337
0.015908571 -0.20681143 0.69600004 15918824
0.017234286 -0.20681143 0.69600004 15918824
0.018586667 -0.20710857 0.69700003 15720677
0.019914286 -0.20710857 0.69700003 15720677
0.021241905 -0.20710857 0.69700003 15851236
0.022601904 -0.20740572 0.69800001 15982822
0.023931429 -0.20740572 0.69800001 15786722
0.025260951 -0.20740572 0.69800001 15786722
0.026666667 -0.208 0.70000005 15786218
0.028000001 -0.208 0.70000005 15983597
0.029333336 -0.208 0.70000005 15852520
0.030666668 -0.208 0.70000005 15918313
0.032000002 -0.208 0.70000005 15918567
0.033333335 -0.208 0.70000005 16050153
0.034666669 -0.208 0.70000005 15985132
0.036000002 -0.208 0.70000005 15853546
0.037333336 -0.208 0.70000005 15918826
0.038666669 -0.208 0.70000005 15918826
0.040057145 -0.20829716 0.70100003 15918826
0.041392382 -0.20829716 0.70100003 15787240
0.042727619 -0.20829716 0.70100003 15852263
0.04418857 -0.20889142 0.70300001 16049642
0.045527618 -0.20889142 0.70300001 15852774
0.046866667 -0.20889142 0.70300001 16115946
0.04827429 -0.20918858 0.70400006 15918313
0.049756192 -0.20978284 0.70600003 15984106
0.051100954 -0.20978284 0.70600003 15918315
0.052445713 -0.20978284 0.70600003 15984108
0.05379048 -0.20978284 0.70600003 15918828
0.055135239 -0.20978284 0.70600003 15918828
0.056480002 -0.20978284 0.70600003 15984621
0.057824764 -0.20978284 0.70600003 15918828
0.059169523 -0.20978284 0.70600003 15852011
0.060514286 -0.20978284 0.70600003 15852011
0.061859049 -0.20978284 0.70600003 15852263
0.063203812 -0.20978284 0.70600003 16049642
0.064548574 -0.20978284 0.70600003 15918826
0.065893337 -0.20978284 0.70600003 15853033
0.0672381 -0.20978284 0.70600003 15787753
0.068582855 -0.20978284 0.70600003 15853546
0.069927625 -0.20978284 0.70600003 15985389
0.071272388 -0.20978284 0.70600003 16116975
0.072719999 -0.21008 0.70700002 15918828
0.074066669 -0.21008 0.70700002 15853035
0.075519994 -0.21037714 0.708 15853033
0.076868571 -0.21037714 0.708 15984619
0.078217141 -0.21037714 0.708 15985132
0.07979048 -0.21097144 0.71000004 15919339
0.081142858 -0.21097144 0.71000004 15852522
0.082495242 -0.21097144 0.71000004 16049901
0.083847627 -0.21097144 0.71000004 15984878
0.085200004 -0.21097144 0.71000004 15919085
0.086552382 -0.21097144 0.71000004 15918317
0.087904766 -0.21097144 0.71000004 16049903
0.089257143 -0.21097144 0.71000004 15852772
0.090609528 -0.21097144 0.71000004 16050151
0.091961905 -0.21097144 0.71000004 15919596
0.09331429 -0.21097144 0.71000004 15788010
0.094800003 -0.21126857 0.71100003 15721960
0.096154287 -0.21126857 0.71100003 15721960
0.097508572 -0.21126857 0.71100003 15852774
0.098862864 -0.21126857 0.71100003 15786981
0.10021715 -0.21126857 0.71100003 15852011
0.10157143 -0.21126857 0.71100003 15852011
0.10292572 -0.21126857 0.71100003 15786729
0.10428 -0.21126857 0.71100003 15786729
0.10563429 -0.21126857 0.71100003 15852520
0.10698857 -0.21126857 0.71100003 15852520
0.10864763 -0.21186288 0.71300006 15523557
0.11000572 -0.21186288 0.71300006 15589350
0.11152001 -0.21216002 0.71400005 15787240
0.11288001 -0.21216002 0.71400005 15853033
0.11424001 -0.21216002 0.71400005 15853033
0.1156 -0.21216002 0.71400005 15655654
0.11696 -0.21216002 0.71400005 15720936
0.11832 -0.21216002 0.71400005 16049901
0.11968001 -0.21216002 0.71400005 15853546
0.12104001 -0.21216002 0.71400005 15985132
0.12274286 -0.21275429 0.71600002 15852520
0.12410666 -0.21275429 0.71600002 15852520
0.12564573 -0.21305144 0.71700001 15720934
0.12701143 -0.21305144 0.71700001 15720934
0.12873524 -0.21364573 0.71900004 15589348
0.13010477 -0.21364573 0.71900004 15786727
0.13147429 -0.21364573 0.71900004 15985132
0.13284382 -0.21364573 0.71900004 15919339
0.13421334 -0.21364573 0.71900004 15458788
0.13520572 -0.21305144 0.71700001 15656167
0.13657142 -0.21305144 0.71700001 16050671
0.13793714 -0.21305144 0.71700001 16050671
0.13969144 -0.21364573 0.71900004 15786727
0.14066857 -0.21305144 0.71700001 15852520
0.14203429 -0.21305144 0.71700001 15786981
0.1434 -0.21305144 0.71700001 16050153
0.14516953 -0.21364573 0.71900004 15590374
0.14653906 -0.21364573 0.71900004 15656167
0.14811429 -0.21394287 0.72000003 15721960
0.14948572 -0.21394287 0.72000003 15524581
0.15085715 -0.21394287 0.72000003 15589859
0.15222858 -0.21394287 0.72000003 15721445
0.15402667 -0.21453716 0.72200006 15391969
0.15540192 -0.21453716 0.72200006 15852520
0.15677716 -0.21453716 0.72200006 15656167
0.15815239 -0.21453716 0.72200006 15458788
0.15908572 -0.21394287 0.72000003 15392741
0.16045715 -0.21394287 0.72000003 15721706
0.1622781 -0.21453716 0.72200006 15392743
0.16365334 -0.21453716 0.72200006 15590122
0.16502859 -0.21453716 0.72200006 15721960
0.16640382 -0.21453716 0.72200006 15787753
0.16777906 -0.21453716 0.72200006 15457253
0.1691543 -0.21453716 0.72200006 15457253
0.17052953 -0.21453716 0.72200006 15523559
0.17214286 -0.2148343 0.72300005 15786731
0.17352001 -0.2148343 0.72300005 15786729
0.17489716 -0.2148343 0.72300005 15786729
0.17676191 -0.21542858 0.72500002 15655656
0.17814286 -0.21542858 0.72500002 15392484
0.18001907 -0.21602288 0.72700006 15326696
0.18140382 -0.21602288 0.72700006 15326696
0.18228573 -0.21542858 0.72500002 15393254
0.18366668 -0.21542858 0.72500002 15327461
0.18504763 -0.21542858 0.72500002 15128799
0.18642858 -0.21542858 0.72500002 15326178
0.18780953 -0.21542858 0.72500002 15457512
0.18971239 -0.21602288 0.72700006 15720684
0.19109716 -0.21602288 0.72700006 15392484
0.19248192 -0.21602288 0.72700006 15260898
0.19413334 -0.21632001 0.72800004 15326178
0.19552 -0.21632001 0.72800004 15457764
0.19690667 -0.21632001 0.72800004 15392230
0.19883808 -0.2169143 0.73000002 15326437
0.19968002 -0.21632001 0.72800004 15326437
0.20106667 -0.21632001 0.72800004 15523816
0.20245335 -0.21632001 0.72800004 15524327
0.2044 -0.2169143 0.73000002 15261155
0.20579048 -0.2169143 0.73000002 15195103
0.20718096 -0.2169143 0.73000002 15326689
0.20857142 -0.2169143 0.73000002 15326437
0.21024953 -0.21721143 0.73100001 15326437
0.21164191 -0.21721143 0.73100001 15195616
0.21361716 -0.21780573 0.73300004 15195616
0.21501334 -0.21780573 0.73300004 15063265
0.21640953 -0.21780573 0.73300004 15063265
0.21780573 -0.21780573 0.73300004 15128538
0.21920192 -0.21780573 0.73300004 15260124
0.22089906 -0.21810287 0.73400003 14997722
0.22229716 -0.21810287 0.73400003 14800343
0.22369523 -0.21810287 0.73400003 14997724
0.22509332 -0.21810287 0.73400003 15129310
0.22649144 -0.21810287 0.73400003 15063004
0.22788954 -0.21810287 0.73400003 14997211
0.22928762 -0.21810287 0.73400003 14865886
0.23068573 -0.21810287 0.73400003 14865886
0.2320838 -0.21810287 0.73400003 14865886
0.23348191 -0.21810287 0.73400003 15063265
0.23488 -0.21810287 0.73400003 14602977
0.2362781 -0.21810287 0.73400003 14668770
0.2376762 -0.21810287 0.73400003 14931933
0.23972574 -0.21869716 0.73600006 14866140
0.24112764 -0.21869716 0.73600006 14734552
0.24252954 -0.21869716 0.73600006 15063517
0.24393144 -0.21869716 0.73600006 14800604
0.24533336 -0.21869716 0.73600006 14734811
0.24673526 -0.21869716 0.73600006 14800345
0.24813715 -0.21869716 0.73600006 14800345
0.25021717 -0.21929143 0.73800004 14735063
0.25162286 -0.21929143 0.73800004 14800856
0.2530286 -0.21929143 0.73800004 14536660
0.25443429 -0.21929143 0.73800004 14734039
0.25618666 -0.21958858 0.73900002 14602457
0.25759429 -0.21958858 0.73900002 14734043
0.25900191 -0.21958858 0.73900002 14800347
0.26040953 -0.21958858 0.73900002 14668761
0.26252571 -0.22018288 0.74100006 14273749
0.26393718 -0.22018288 0.74100006 14602714
0.26534858 -0.22018288 0.74100006 14537434
0.26676002 -0.22018288 0.74100006 14537434
0.26817143 -0.22018288 0.74100006 14405076
0.26958287 -0.22018288 0.74100006 14470869
0.27099428 -0.22018288 0.74100006 14339285
0.27240574 -0.22018288 0.74100006 14470871
0.27381715 -0.22018288 0.74100006 14470871
0.27522859 -0.22018288 0.74100006 14405078
0.27664 -0.22018288 0.74100006 14273492
0.27805144 -0.22018288 0.74100006 14339285
0.27984002 -0.22048001 0.74200004 14405078
0.28125334 -0.22048001 0.74200004 14405078
0.28342858 -0.22107428 0.74400002 14141652
0.28484571 -0.22107428 0.74400002 14273238
0.28626287 -0.22107428 0.74400002 14273490
0.28768 -0.22107428 0.74400002 14273490
0.28909713 -0.22107428 0.74400002 13944525
0.29051429 -0.22107428 0.74400002 14273490
0.29271621 -0.22166859 0.74600005 14273751
0.29413715 -0.22166859 0.74600005 14207958
0.29555812 -0.22166859 0.74600005 14076113
0.29697907 -0.22166859 0.74600005 14207699
0.29840001 -0.22166859 0.74600005 14207695
0.29982096 -0.22166859 0.74600005 14339281
0.30164573 -0.22196572 0.74700004 13944527
0.30306858 -0.22196572 0.74700004 14076113
0.30449143 -0.22196572 0.74700004 13878991
0.30591431 -0.22196572 0.74700004 14010577
0.30733714 -0.22196572 0.74700004 13945304
0.30958667 -0.22256 0.74900001 13813718
0.31101331 -0.22256 0.74900001 14075859
0.31244001 -0.22256 0.74900001 14207445
0.31386667 -0.22256 0.74900001 14207188
0.31529334 -0.22256 0.74900001 14207188
0.31714287 -0.22285716 0.75000006 14141906
0.31857145 -0.22285716 0.75000006 14141906
0.32000002 -0.22285716 0.75000006 13747916
0.3214286 -0.22285716 0.75000006 14011088
0.3237181 -0.22345144 0.75200003 13616330
0.32515049 -0.22345144 0.75200003 13813709
0.32658288 -0.22345144 0.75200003 13813711
0.32801524 -0.22345144 0.75200003 13747918
0.32944763 -0.22345144 0.75200003 13813711
0.33088002 -0.22345144 0.75200003 13879504
0.33319619 -0.22404571 0.75400001 13550028
0.3346324 -0.22404571 0.75400001 13747407
0.33606857 -0.22404571 0.75400001 13812687
0.33795241 -0.22434287 0.75500005 13944273
0.34028953 -0.22493714 0.75700003 13613257
0.34173146 -0.22493714 0.75700003 13810636
0.34317333 -0.22493714 0.75700003 13613763
0.34461525 -0.22493714 0.75700003 13942728
0.34605715 -0.22493714 0.75700003 13484492
0.34749907 -0.22493714 0.75700003 13813457
0.34894094 -0.22493714 0.75700003 13813968
0.35038286 -0.22493714 0.75700003 13550796
0.35182476 -0.22493714 0.75700003 13155781
0.35326669 -0.22493714 0.75700003 13616332
0.35470858 -0.22493714 0.75700003 13616591
0.35615048 -0.22493714 0.75700003 13748177
0.3575924 -0.22493714 0.75700003 13352910
0.3590343 -0.22493714 0.75700003 13418703
0.36142859 -0.22553144 0.75900006 13155527
0.36287433 -0.22553144 0.75900006 13352906
0.36432004 -0.22553144 0.75900006 13484496
0.36576575 -0.22553144 0.75900006 13550289
0.36721143 -0.22553144 0.75900006 13812428
0.36865717 -0.22553144 0.75900006 13878221
0.37010288 -0.22553144 0.75900006 13615049
0.37154859 -0.22553144 0.75900006 13680842
0.37299433 -0.22553144 0.75900006 12959172
0.37444001 -0.22553144 0.75900006 13090758
0.37588573 -0.22553144 0.75900006 13288655
0.37733147 -0.22553144 0.75900006 13354448
0.37877718 -0.22553144 0.75900006 13222090
0.38022289 -0.22553144 0.75900006 13419469
0.38267431 -0.22612572 0.76100004 13024715
0.38412383 -0.22612572 0.76100004 13156301
0.38557336 -0.22612572 0.76100004 13287376
0.38702288 -0.22612572 0.76100004 13353169
0.38847241 -0.22612572 0.76100004 13023950
0.39043429 -0.22642286 0.76200002 13352915
0.39188573 -0.22642286 0.76200002 13418703
-0.38826668 -0.18806666 0.63700002 12562622
-0.38644573 -0.18777144 0.63600004 12562622
-0.38523433 -0.18777144 0.63600004 12431808
-0.38341907 -0.1874762 0.63500005 12563394
-0.38220957 -0.1874762 0.63500005 12497599
-0.3804 -0.18718095 0.634 12826564
-0.37919238 -0.18718095 0.634 12759999
-0.37798476 -0.18718095 0.634 12825792
-0.37677714 -0.18718095 0.634 12760001
-0.37556952 -0.18718095 0.634 12891587
-0.3743619 -0.18718095 0.634 12825794
-0.37433144 -0.18777144 0.63600004 12891587
-0.3737067 -0.18806666 0.63700002 12760001
-0.37249333 -0.18806666 0.63700002 12760001
-0.37128001 -0.18806666 0.63700002 12825544
