# .PCD v0.7 - Point Cloud Data file format
VERSION 0.7
FIELDS x y z
SIZE 4 4 4
TYPE F F F
COUNT 1 1 1
WIDTH 1310
HEIGHT 1
VIEWPOINT 0 0 0 1 0 0 0
POINTS 1310
DATA ascii
0.006823 0.018709 -0.40136999
0.0181405 0.018570499 -0.40131497
0.00493852 0.019439202 -0.40168399
0.0068301 0.019572999 -0.40178999
0.0087045003 0.019773001 -0.40101001
0.010588 0.019773001 -0.40101999
0.012478 0.019773001 -0.40101999
0.0087107001 0.020461001 -0.40127999
0.010594999 0.020461001 -0.40127999
0.012486 0.020461001 -0.40127999
-0.00072681997 -0.036277499 -0.40087497
0.0011583 -0.036421001 -0.40090001
0.0030434001 -0.036636502 -0.400785
-0.00072636997 -0.035452668 -0.40060332
0.0011573666 -0.035511669 -0.40059003
0.0030398001 -0.0357095 -0.40031999
0.0049251001 -0.035216998 -0.40066001
0.0068148999 -0.035103999 -0.40096
0.0087019997 -0.035107002 -0.40099999
-0.00072583999 -0.034508333 -0.40029001
0.00115625 -0.0344055 -0.40020502
0.0049211001 -0.034669999 -0.40031999
0.0068097496 -0.034499999 -0.400655
0.0086956006 -0.034501754 -0.400675
-0.0063823666 -0.033166666 -0.40093002
-0.0044964501 -0.033068001 -0.40095499
-0.0026130499 -0.0333305 -0.40095001
-0.00072549999 -0.033914 -0.40009001
0.0068028425 -0.033614427 -0.40023142
0.0086867502 -0.033683334 -0.40023831
0.010577 -0.033320833 -0.40066335
0.012473 -0.033075001 -0.40098
-0.0063773189 -0.032479912 -0.40059364
-0.0044925003 -0.032461997 -0.40061501
-0.0026103836 -0.032427002 -0.40056333
0.010564 -0.032841999 -0.40019
0.012460909 -0.032485183 -0.40066001
0.014344624 -0.032339878 -0.4006187
-0.0101525 -0.0311385 -0.40095499
-0.0082682502 -0.0311385 -0.40095001
-0.0063713999 -0.031679999 -0.40019426
-0.0044876575 -0.031709284 -0.40019575
-0.0026078001 -0.03172667 -0.40018001
0.012443501 -0.031819999 -0.4001725
0.0143278 -0.031774599 -0.40017599
0.016246501 -0.0311385 -0.40096
-0.010143999 -0.030512543 -0.4005864
-0.0082595088 -0.030512184 -0.40057996
0.016229726 -0.030513544 -0.40060273
-0.012039751 -0.029157 -0.40090001
-0.0101334 -0.029801199 -0.40013799
-0.0082489662 -0.029754167 -0.4001483
0.016209332 -0.029896 -0.40012667
0.018104374 -0.029411251 -0.40055376
-0.012026637 -0.028454633 -0.40047455
0.018082 -0.028951 -0.40008
0.019987429 -0.028277712 -0.40036145
0.020009 -0.0287745 -0.40079248
-0.013921143 -0.027312288 -0.40080285
-0.012014001 -0.027826667 -0.40007666
0.019971 -0.027872499 -0.40007001
0.021892101 -0.0274537 -0.40078503
-0.013909274 -0.026474001 -0.40042362
0.021866819 -0.026472546 -0.4004018
0.023799 -0.026008001 -0.40099999
-0.015805626 -0.025378875 -0.40079752
-0.013908365 -0.025485367 -0.40036634
0.021851752 -0.025797751 -0.4001075
0.023782801 -0.025471101 -0.40074196
-0.015792908 -0.024509089 -0.40039453
-0.013907365 -0.024507182 -0.40036362
0.023756545 -0.024507366 -0.40036726
-0.015789183 -0.023513364 -0.40028456
-0.013897 -0.023784798 -0.40012798
0.023737667 -0.023874 -0.40008
0.025660889 -0.02345011 -0.4008078
-0.015794 -0.022502666 -0.40041748
0.025629545 -0.022541637 -0.4003064
-0.015797701 -0.021497199 -0.40050602
-0.017695501 -0.020116001 -0.40094501
-0.015786914 -0.020518333 -0.40026584
0.027558999 -0.020072 -0.40099001
-0.017678546 -0.019483091 -0.40057996
0.027532728 -0.019487184 -0.40065277
-0.017674999 -0.018523272 -0.40050364
0.027508818 -0.018516183 -0.40036094
-0.017692499 -0.017839499 -0.40087751
0.027512083 -0.017446501 -0.40041253
0.027501376 -0.016584 -0.40022129
0.029443 -0.0142142 -0.40089202
0.029412091 -0.013470545 -0.40049726
0.029392272 -0.012492999 -0.4002454
0.029401364 -0.011495181 -0.40036184
-0.015778 -0.010139333 -0.40007666
0.029430699 -0.0105791 -0.40073299
-0.01579175 -0.0094906325 -0.40036836
-0.015796402 -0.0085097393 -0.40046802
0.027494999 -0.0082101002 -0.40012249
-0.015792832 -0.0075172591 -0.40039584
0.027511248 -0.0075201332 -0.40038666
-0.015793398 -0.0065011703 -0.40041199
0.027511001 -0.0064772633 -0.40040091
-0.015791383 -0.0055260924 -0.40035006
0.027516998 -0.0055086273 -0.40045545
-0.0157877 -0.0045267399 -0.40024599
0.027545001 -0.0046908567 -0.40081429
-0.015798001 -0.0035588443 -0.40053886
-0.0157985 -0.0022877099 -0.40072697
-0.015790999 -0.00160966 -0.40056199
-0.015805 -0.00086496997 -0.40090001
-0.0139005 -0.00061859499 -0.4003
0.025625888 -0.00036561975 -0.40024668
-0.013922 0.00032009999 -0.40092
0.025641548 0.00049156207 -0.40049821
0.025637669 0.0015512082 -0.40043497
-0.012017 0.0024321 -0.40024999
0.0256286 0.0025148001 -0.40029001
-0.012032 0.0031828999 -0.40075001
0.025632836 0.0035196 -0.40035751
0.025658779 0.0044524665 -0.40077665
-0.01014 0.0057716998 -0.40031999
-0.01015 0.0064714001 -0.4007
0.023740251 0.0068323249 -0.4001075
0.023757089 0.0075031635 -0.4003782
-0.0082470998 0.0087905005 -0.40011001
0.023757815 0.0085250465 -0.40039092
-0.0082591251 0.0093740253 -0.40063626
0.023763923 0.0095227081 -0.40048614
-0.0063756802 0.010482701 -0.40047497
-0.00448645 0.0109095 -0.40011501
0.023788249 0.010202 -0.40087
-0.0044917581 0.011477582 -0.40053919
0.019965 0.011766 -0.40009999
-0.0044964203 0.012257201 -0.40091199
-0.002607214 0.012617142 -0.40013859
0.019975333 0.012542666 -0.40029669
0.021861335 0.012540333 -0.40017334
-0.0026107603 0.0133716 -0.40059
-0.00072560337 0.013856 -0.40017
0.018083001 0.013648 -0.40009001
0.019990001 0.0135695 -0.40055501
0.021876499 0.013567001 -0.40044498
-0.00072642835 0.014297001 -0.40065828
0.001156325 0.014738625 -0.40022373
0.0030392001 0.01483 -0.40024996
0.018092334 0.014426 -0.40029001
0.019997999 0.014213 -0.40070999
0.020004001 0.014651 -0.40081999
0.0218895 0.014430501 -0.40068001
0.0011577499 0.015333666 -0.40071332
0.0030429601 0.015520302 -0.40073198
0.018104501 0.015455 -0.40055001
0.02001 0.015096 -0.40092999
0.0219025 0.0153185 -0.40092501
0.0030451 0.016046001 -0.40099999
0.0049188873 0.016545625 -0.40022621
0.0068043498 0.016476501 -0.40028501
0.0143265 0.016615501 -0.40007502
0.018116999 0.016541 -0.40081999
0.0049246168 0.017424334 -0.40066496
0.0068135504 0.017575499 -0.40082499
0.0086862501 0.017756499 -0.400235
0.010567001 0.017541999 -0.40018335
0.012449 0.017541999 -0.40018332
0.014329667 0.017424999 -0.40019667
0.0162095 0.017618001 -0.40011501
0.0049287002 0.018033 -0.40097001
0.0086941998 0.01864 -0.40057498
0.0105775 0.018641001 -0.40059501
0.012463 0.018641001 -0.40059501
0.014334333 0.018419333 -0.40033999
0.016217999 0.0185255 -0.40033501
0.0087003 0.019316999 -0.40084001
0.010584 0.019316999 -0.40085
0.012472 0.019316999 -0.40085
0.0030371 -0.035027001 -0.39998001
0.00303455 -0.034362003 -0.39965001
0.0049172002 -0.034138002 -0.40000001
-0.00072518009 -0.033362668 -0.39991
0.0011554 -0.033558499 -0.39990503
0.0030312 -0.033505499 -0.399225
0.00491165 -0.033372998 -0.39952499
0.0067991 -0.033071999 -0.40000001
0.0086803995 -0.033124998 -0.39994502
-0.0007246575 -0.032505751 -0.39960748
0.0011542999 -0.032566667 -0.3995367
0.0049063 -0.032644998 -0.39908001
0.0067951307 -0.032480076 -0.39973074
0.0086725466 -0.032471769 -0.39962307
0.010551999 -0.032355666 -0.399735
-0.0063676336 -0.03119 -0.39995
-0.0044845501 -0.031179249 -0.39992499
-0.00260535 -0.031236751 -0.39980751
-0.00072400871 -0.031570751 -0.39924625
0.00115325 -0.031654999 -0.39918
0.0067880326 -0.031845503 -0.39928332
0.0086633591 -0.031595331 -0.39926752
0.01054 -0.031762857 -0.39925429
0.012428 -0.03131 -0.39967668
0.014318399 -0.031281199 -0.39989001
-0.0063619497 -0.030476751 -0.39959249
-0.0044803089 -0.030442091 -0.39956906
-0.0026018166 -0.030737832 -0.39928833
0.0086575001 -0.030995 -0.39901999
0.012413333 -0.030851001 -0.3992033
0.014308666 -0.030473834 -0.39954332
-0.010125833 -0.029259667 -0.39981332
-0.0082422402 -0.0292162 -0.39987603
-0.0063551995 -0.029637 -0.39916998
-0.0044753854 -0.029627999 -0.39917001
0.01429789 -0.029545447 -0.39920336
0.016189715 -0.029391002 -0.39962286
-0.010118183 -0.028462363 -0.39947999
-0.0082342736 -0.028464638 -0.39951819
0.016171001 -0.0289365 -0.39915001
0.018058699 -0.028425504 -0.39957899
-0.012005835 -0.027384168 -0.39981496
-0.012 -0.027042 -0.39963999
-0.01011709 -0.027492089 -0.39940822
-0.0082278671 -0.027710998 -0.39915335
0.018036749 -0.027800249 -0.39910498
0.019954624 -0.027382877 -0.39980626
-0.011994817 -0.026498728 -0.39945728
-0.010116909 -0.026495272 -0.39941642
0.019931091 -0.026498545 -0.39945728
-0.01199309 -0.025521362 -0.39940545
-0.010108143 -0.025695285 -0.39916569
0.019915 -0.025645999 -0.39916751
0.021840667 -0.025313666 -0.39985836
-0.011992584 -0.024488917 -0.39939332
0.021819832 -0.024490168 -0.39941499
-0.013885334 -0.023249665 -0.39982334
-0.0119852 -0.023722 -0.39914799
0.021799998 -0.023810999 -0.39906332
0.023720248 -0.023340499 -0.39980003
-0.013867454 -0.022480272 -0.3993282
0.023692908 -0.022481274 -0.39934999
0.023675 -0.0218865 -0.39906001
0.02559191 -0.021506455 -0.39970636
0.025573455 -0.020522637 -0.39940727
-0.0157608 -0.019484 -0.39970699
0.025576269 -0.019517638 -0.39945459
-0.015744334 -0.0185105 -0.39935586
0.025565272 -0.018555366 -0.39927909
-0.0157446 -0.017484803 -0.39936098
-0.015747748 -0.016538916 -0.39942917
0.027485 -0.016104 -0.39995998
-0.015747333 -0.01544125 -0.39941916
0.027461918 -0.015449167 -0.39958668
-0.015747599 -0.014489802 -0.39942601
0.027444098 -0.014484701 -0.39931303
-0.015747499 -0.013480416 -0.39942503
0.027448416 -0.013478416 -0.39937833
-0.015743699 -0.012515999 -0.39933997
0.027453637 -0.012473091 -0.39946273
-0.015745834 -0.011516334 -0.39938751
0.027451275 -0.011473364 -0.39942273
-0.015763499 -0.0106485 -0.39976627
0.027444638 -0.010494455 -0.39931908
0.027450908 -0.0095034726 -0.39941728
0.027475428 -0.0087185567 -0.39980716
0.025560251 -0.004342475 -0.39919877
0.02557509 -0.0035319454 -0.39943549
-0.013861 -0.0023786 -0.39912999
0.025572183 -0.0025156906 -0.39938819
-0.013873667 -0.0017882666 -0.39952001
0.025585249 -0.0015207665 -0.3995975
0.025607999 -0.00087158498 -0.39995998
-0.011988 0.00099377998 -0.39930001
-0.012002 0.0017004 -0.39976001
0.023674 0.0028824001 -0.39905
-0.010109 0.0035498 -0.39914
0.023692166 0.0035103664 -0.3993367
-0.010119 0.0043047001 -0.39954001
0.023696817 0.0045296545 -0.39941362
-0.01013 0.0050474 -0.39993
0.023697821 0.0055191545 -0.39942548
-0.0082277004 0.0069587999 -0.39919999
0.0218025 0.0067508337 -0.39914167
0.02372 0.0063121864 -0.39978287
-0.0082334997 0.0075787674 -0.39947668
0.02181853 0.0075404653 -0.39938238
-0.0082418993 0.00837625 -0.39987499
-0.0063545331 0.0088285338 -0.39912
0.019915001 0.0085920002 -0.39915603
0.021815626 0.0084171249 -0.39932248
-0.0063615204 0.0095111104 -0.39956704
-0.0044735 0.0099389004 -0.39903
0.019929601 0.0094196601 -0.39944401
0.021821 0.0094194207 -0.399434
-0.004479778 0.010412334 -0.39956442
-0.0025995998 0.01088 -0.39912501
0.018040666 0.010551999 -0.39919171
0.019944666 0.010400333 -0.39973333
0.021831999 0.010398333 -0.39963999
-0.0026027749 0.011447251 -0.39956999
0.0180554 0.011496 -0.39950401
0.019956499 0.011224 -0.399955
0.021845333 0.011402334 -0.39988002
-0.0026055332 0.012130332 -0.39993
-0.00072389428 0.012694429 -0.39917856
0.001153375 0.01283525 -0.39921501
0.014296875 0.012421126 -0.39919499
0.018069999 0.012598 -0.39982
-0.00072470371 0.01333125 -0.39963999
0.0011545728 0.013468456 -0.39962909
0.0030310999 0.013818999 -0.39921331
0.014308001 0.013417333 -0.39949334
0.016171001 0.013622667 -0.39912
0.018079 0.013281 -0.40000001
0.0011554749 0.014175001 -0.39993998
0.0030348001 0.014260001 -0.39968666
0.0049074898 0.014632901 -0.39923802
0.0067868 0.014429 -0.39926499
0.0086594997 0.014783 -0.39910001
0.01054 0.014784 -0.39912999
0.012413 0.014784 -0.39912999
0.01431575 0.01455725 -0.39973253
0.016181 0.0145925 -0.39937001
0.004912592 0.015485168 -0.39969084
0.0067953998 0.0154235 -0.39976501
0.0086660339 0.015511666 -0.39937338
0.010547 0.015512333 -0.39941335
0.012423 0.015512333 -0.39941335
0.014321334 0.015538666 -0.39989999
0.016189 0.0154195 -0.399575
0.0049157999 0.016051 -0.39998001
0.0086748004 0.016490001 -0.39974999
0.010557 0.0164905 -0.39978498
0.0124355 0.0164905 -0.39978498
0.014324 0.016143 -0.40000001
0.016199 0.016502 -0.39984
0.0086804004 0.017111 -0.39998999
0.0030273001 -0.032502998 -0.39872336
0.0049029998 -0.032187 -0.39879999
0.0011526 -0.031156 -0.39897001
0.0030230666 -0.031416334 -0.39818335
0.0048982999 -0.031546 -0.398415
0.0067787333 -0.031305667 -0.39874503
0.01053225 -0.031228999 -0.3989225
-0.0025974126 -0.030230626 -0.39865124
-0.00072292524 -0.030462466 -0.3986913
0.0011515401 -0.030357603 -0.39859599
0.0048938999 -0.030955 -0.39805001
0.0067693251 -0.03078175 -0.39820498
0.0086499806 -0.030427 -0.39869601
0.01052475 -0.030476334 -0.39859664
0.012397249 -0.030307751 -0.39867249
-0.0063513336 -0.029153332 -0.39892665
-0.0044723335 -0.029143333 -0.39892665
-0.0025939716 -0.029709714 -0.3981843
-0.00072195329 -0.029624777 -0.39821002
0.0011503667 -0.029625667 -0.39818999
0.0086389501 -0.0297825 -0.39821249
0.0105152 -0.0295208 -0.39825001
0.012382834 -0.029699668 -0.398195
0.01429 -0.029064 -0.39899999
-0.0063461815 -0.028492182 -0.39859363
-0.0044686273 -0.02848882 -0.39859363
0.010508 -0.028991001 -0.39803001
0.014275908 -0.028496182 -0.39865637
0.016151667 -0.028405666 -0.39863777
-0.0082242498 -0.0272265 -0.39890999
-0.0063402574 -0.027694572 -0.39819425
-0.0044649863 -0.027696999 -0.39819285
0.014256001 -0.027882667 -0.39817333
0.016132399 -0.027786601 -0.39816198
0.018025002 -0.027314832 -0.39885163
-0.0082183331 -0.026483832 -0.39853165
0.017999001 -0.026017001 -0.39831001
0.018009273 -0.026524089 -0.39852545
-0.010098999 -0.025161 -0.39887249
-0.0082107391 -0.025723999 -0.39814001
0.017991668 -0.025678001 -0.3981483
0.019904332 -0.025114665 -0.39892665
-0.010087091 -0.024473818 -0.3984682
0.01988291 -0.024473 -0.39845636
-0.011976799 -0.023235401 -0.39888
-0.0100775 -0.02379825 -0.39811251
0.021784859 -0.023326572 -0.39882284
-0.011962092 -0.022508638 -0.39840814
0.021757456 -0.022508819 -0.39841458
-0.013849 -0.0214934 -0.398754
-0.011951 -0.02197 -0.39805001
0.021736002 -0.021877998 -0.39809668
0.023660377 -0.021402624 -0.39882249
-0.013839249 -0.020502167 -0.39842001
0.023630636 -0.020543726 -0.39835453
-0.0138383 -0.019497801 -0.39838502
0.02361 -0.019997001 -0.39802
-0.013839916 -0.018543249 -0.39844665
-0.013839999 -0.017496817 -0.39844999
0.025528908 -0.017513273 -0.39870271
-0.013839999 -0.016553817 -0.3984336
0.025511362 -0.016551184 -0.39840639
-0.01384 -0.015490334 -0.3984358
0.025514668 -0.015490334 -0.39845499
-0.013839999 -0.014499456 -0.39843997
0.025498001 -0.014585444 -0.39825556
-0.01384 -0.01344825 -0.39843997
-0.013839999 -0.012487 -0.39843997
-0.01384 -0.01148625 -0.39843997
-0.013839999 -0.010474 -0.39843997
0.025485 -0.010177 -0.39807999
-0.013839999 -0.0094800182 -0.39843997
0.025508998 -0.0095221577 -0.3983908
-0.013839999 -0.0084830904 -0.39844811
0.025520725 -0.0085056992 -0.3985464
-0.013839584 -0.0074930335 -0.39843249
0.025511667 -0.0074821417 -0.39842331
-0.013838365 -0.0065201912 -0.39840367
0.025504798 -0.0064877099 -0.39831597
-0.013840445 -0.0055210674 -0.39845777
0.025518583 -0.0055208416 -0.39853248
-0.013837133 -0.0042930399 -0.39837202
0.025541665 -0.004853867 -0.3989
-0.013837278 -0.0037771107 -0.39839274
-0.013852 -0.0027467001 -0.39888999
0.023622751 -0.0023661498 -0.39822623
0.023641335 -0.0015176916 -0.39852583
-0.0119565 -0.00061534496 -0.398265
0.023639912 -0.00045643924 -0.39850456
-0.011975 0.00031869 -0.39886001
0.023630457 0.00048885302 -0.39834821
0.023632417 0.0015426668 -0.39838168
-0.010092501 0.0024083499 -0.39855501
0.023655999 0.0024116875 -0.39875877
-0.0082079004 0.0045492002 -0.39825001
0.021734999 0.0049486998 -0.39804
-0.00821565 0.0055263499 -0.39862502
0.021757273 0.0055048359 -0.39840907
-0.008223 0.0064237998 -0.39897999
-0.0063372999 0.006908 -0.39802
0.0198675 0.0068302499 -0.39811501
0.021785501 0.0062401998 -0.39886501
-0.0063432832 0.0074671954 -0.39840248
0.019886233 0.0075237006 -0.39853296
-0.0063503166 0.0082878172 -0.39884999
-0.0044639334 0.0088071665 -0.39812002
0.017990399 0.0087473597 -0.39811802
0.019904666 0.0081115337 -0.39894
-0.0044684336 0.0094378442 -0.3985689
-0.0025921999 0.0099131996 -0.39805001
0.017998001 0.0090501495 -0.398285
0.018014375 0.0095373886 -0.39863127
-0.0025957779 0.010384444 -0.39858115
-0.00072183501 0.010828501 -0.39814749
0.014256501 0.010716334 -0.39816836
0.016133001 0.010462857 -0.39818716
0.018030999 0.010079 -0.39899999
-0.00072276633 0.011474455 -0.39861453
0.0011502 0.011815 -0.39814332
0.0086343996 0.011923 -0.39802
0.014275334 0.011448732 -0.39864331
0.0161476 0.011472401 -0.39853001
-0.00072343502 0.012171749 -0.39894
0.0011518 0.012301428 -0.39867997
0.0030230668 0.012701833 -0.39818501
0.0048957402 0.012507699 -0.39822298
0.0067691333 0.012474666 -0.39823666
0.0086385831 0.012397 -0.39820001
0.010514 0.012469001 -0.39819399
0.0123822 0.012469 -0.39819402
0.016160332 0.012571666 -0.39884004
0.0030269374 0.013293875 -0.39867747
0.0049002822 0.013445363 -0.39862996
0.0067786002 0.013505 -0.398785
0.0086467806 0.0133436 -0.39855403
0.0105246 0.013343801 -0.39856201
0.012394199 0.013343799 -0.39856201
0.0049040001 0.014080999 -0.398945
0.0086550498 0.014285 -0.39890999
0.010534501 0.014285499 -0.39893499
0.012406999 0.014285499 -0.39893499
0.0030194663 -0.030489333 -0.39772001
0.0048901001 -0.0304315 -0.39774001
0.00676094 -0.030291399 -0.39773801
-0.0025916751 -0.029193001 -0.39789501
-0.00072143 -0.029102001 -0.39794499
0.0011495 -0.029201001 -0.39789498
0.0030158143 -0.029551854 -0.39725286
0.0048843599 -0.029671198 -0.39728802
0.0067522125 -0.029698374 -0.39727375
0.0086273504 -0.029269166 -0.39771333
0.012374 -0.029213 -0.39792001
-0.0025892726 -0.028438091 -0.39758816
-0.00072081183 -0.028441183 -0.39762276
0.0011479625 -0.028670875 -0.39736876
0.0086150505 -0.028767001 -0.39719
0.010497 -0.028420912 -0.39768183
0.012364083 -0.028458999 -0.39760253
-0.0063362503 -0.027156251 -0.39792502
-0.0044630002 -0.027159 -0.39792502
-0.00258665 -0.027556501 -0.39721
-0.00071997748 -0.027554378 -0.3971875
0.010482666 -0.027806999 -0.39719331
0.012351999 -0.027575126 -0.39721748
0.014236 -0.027377142 -0.39766711
0.016119335 -0.027247334 -0.39787665
-0.0063304906 -0.026451273 -0.39757359
-0.0044602728 -0.02645191 -0.39757097
0.014215 -0.026870333 -0.39714336
0.016102545 -0.026449455 -0.39754725
-0.0082049798 -0.025239 -0.39789
-0.0063228714 -0.025650572 -0.39715999
-0.0044563003 -0.025649998 -0.39716858
0.016084144 -0.025652427 -0.3971943
0.01798025 -0.025192501 -0.39789748
-0.0081956638 -0.024500091 -0.39752543
0.017963002 -0.024500636 -0.39753181
-0.0100725 -0.023313999 -0.39788333
-0.0081862668 -0.023743002 -0.3971633
0.0179445 -0.023741834 -0.39713836
0.019836999 -0.023532111 -0.39747664
-0.010063 -0.0224915 -0.39745501
-0.0119415 -0.021440301 -0.397755
-0.0100545 -0.021861501 -0.39708
0.021718498 -0.02135 -0.397825
-0.011932453 -0.02050182 -0.39746368
0.02169509 -0.020499002 -0.39739725
-0.011933545 -0.019504819 -0.39749911
0.021680668 -0.019861 -0.39708337
0.023591399 -0.019467501 -0.39772901
-0.011929455 -0.018536635 -0.39736909
0.023574414 -0.018496417 -0.39745331
-0.011920501 -0.017943 -0.39708
0.023577202 -0.017497798 -0.39749902
0.023565501 -0.016543416 -0.39731082
0.025476001 -0.01406 -0.39797002
0.025448728 -0.013456455 -0.3976227
0.025423639 -0.012493727 -0.39729822
0.025432667 -0.011453833 -0.3974117
0.02546343 -0.010638143 -0.39780426
0.023558168 -0.0062823836 -0.39719164
0.023575252 -0.0055090995 -0.39746499
-0.011925857 -0.0043374142 -0.39725998
0.0235737 -0.0045126299 -0.39744195
-0.01193025 -0.0038719077 -0.39739168
0.023581585 -0.0035543584 -0.39756835
-0.011922 -0.0025505 -0.39712501
0.023603335 -0.0028786 -0.39791667
-0.011934999 -0.0017795 -0.39755666
-0.010057 -0.00019183999 -0.39723
-0.010067 0.00053143001 -0.3976
0.021677 0.00095288001 -0.39702001
-0.010077 0.0012734 -0.39796999
-0.0081861001 0.0016502 -0.39717999
0.021692334 0.001537975 -0.39733747
-0.0081916004 0.0023993 -0.39745
0.021699602 0.00250187 -0.39751107
-0.0081997998 0.0034956499 -0.39785498
0.021697834 0.0034947498 -0.39746499
-0.0063234 0.0046628001 -0.39713001
0.019817501 0.0048919497 -0.39705998
0.0217163 0.0044370098 -0.39774799
-0.0063285246 0.0055227 -0.39745498
0.019834999 0.0054934453 -0.39743093
-0.0063343998 0.0064722002 -0.39783335
-0.0044543999 0.0068902001 -0.39704999
0.017943 0.00671288 -0.39711002
0.019855998 0.0063291336 -0.39787331
-0.0044588717 0.0074723042 -0.39743561
0.017960727 0.0074563636 -0.39748457
-0.0044618798 0.0083245803 -0.39786598
-0.0025862332 0.0087858662 -0.39714003
0.014217001 0.0086840848 -0.39716858
0.016082501 0.0087689171 -0.39715502
0.017978799 0.00825282 -0.39787
-0.0025891443 0.0094143115 -0.39759108
-0.00071992003 0.0099031664 -0.3971633
0.014233273 0.0095033264 -0.39757183
0.016107 0.0094887353 -0.3976382
-0.00072085834 0.010339667 -0.39764667
0.0011473167 0.010710333 -0.39715001
0.00301567 0.010526801 -0.397232
0.0048830998 0.010853667 -0.39719665
0.00675165 0.0107645 -0.39721501
0.008613267 0.010851666 -0.39713001
0.0104835 0.010632751 -0.39717999
0.012351 0.01063275 -0.39717999
0.014247 0.0102415 -0.39792502
0.0011486874 0.011307499 -0.3976225
0.0030183913 0.01148425 -0.39758584
0.0048896088 0.011484001 -0.39769837
0.0067581497 0.011363249 -0.39759749
0.0086264499 0.011383939 -0.39768058
0.010495882 0.011414118 -0.39763999
0.012364999 0.011414117 -0.39763999
0.0030208249 0.0122245 -0.39789498
0.010508 0.012031 -0.398
0.012376 0.012031 -0.398
0.0048798001 -0.029072 -0.39693999
0.0067459331 -0.029163001 -0.39695334
0.0011459501 -0.028175 -0.39667749
0.0030112499 -0.028395373 -0.39667192
0.0048738467 -0.028335355 -0.3965883
0.0067399838 -0.028460413 -0.39665583
0.0086028147 -0.028239569 -0.39667001
-0.0025851498 -0.0270705 -0.396965
-0.00071950501 -0.027068 -0.396945
0.001144575 -0.027684376 -0.39621624
0.0030080799 -0.027600501 -0.39626303
0.0048686457 -0.027589088 -0.39627275
0.0067329397 -0.027506899 -0.39623702
0.0085916715 -0.027642999 -0.39621142
0.010468286 -0.027305285 -0.39668432
0.0123445 -0.027090501 -0.39697501
-0.002583409 -0.026470272 -0.39664638
-0.0007189 -0.026469456 -0.39663726
0.010453999 -0.026803002 -0.39615667
0.012334272 -0.026477002 -0.39664909
0.014196625 -0.0263435 -0.39664
-0.0063179 -0.025169998 -0.39691666
-0.0044534001 -0.025169665 -0.39692333
-0.0025811126 -0.025643751 -0.39620501
-0.00071803998 -0.02564425 -0.39621499
0.0123205 -0.025638625 -0.39620501
0.014180166 -0.025728665 -0.39617333
0.016071999 -0.025172001 -0.39695001
-0.0063112248 -0.024482749 -0.39657089
-0.0044490583 -0.024482751 -0.39657333
0.016056081 -0.024483502 -0.39657998
-0.0081799608 -0.023215001 -0.39690602
-0.0063041141 -0.023635002 -0.39616427
-0.004444133 -0.023682499 -0.39616501
0.0160415 -0.023681499 -0.39614832
0.0179318 -0.023213398 -0.39687198
0.019812001 -0.023034001 -0.39693999
-0.0081716087 -0.022489274 -0.39650545
0.017914908 -0.022489365 -0.39650545
0.019793363 -0.022491546 -0.3965418
-0.010047751 -0.021379249 -0.39680126
-0.0081647001 -0.021865001 -0.39611998
0.0178976 -0.021772599 -0.39614001
0.019787455 -0.021500636 -0.39638996
-0.010040584 -0.020484166 -0.39649335
0.01978833 -0.020481918 -0.39644918
-0.0100416 -0.0194993 -0.39651102
0.019768832 -0.019669168 -0.39617166
0.021669716 -0.01938043 -0.39684287
-0.01003775 -0.018532667 -0.39640334
0.021646 -0.018531168 -0.39637914
-0.011910667 -0.017416555 -0.39676443
-0.010027333 -0.01785 -0.39607668
0.021625999 -0.017938999 -0.39603999
-0.0119 -0.016501499 -0.39642084
-0.0119001 -0.015493199 -0.39642501
0.023529999 -0.0155081 -0.39674097
-0.011902668 -0.014559001 -0.39650169
0.023509167 -0.014554418 -0.39640915
-0.01190225 -0.013465083 -0.39649335
0.023511333 -0.013462584 -0.39644417
-0.011901999 -0.0125139 -0.39648002
0.023514999 -0.012469635 -0.39650458
-0.011902 -0.0115095 -0.39648005
0.023514092 -0.01146591 -0.39648733
-0.011901999 -0.010512546 -0.39647639
0.023514636 -0.010508001 -0.39649913
-0.011902 -0.0094773239 -0.39648256
0.023513833 -0.0094769746 -0.39648339
-0.011903001 -0.0084885191 -0.39652294
0.023507999 -0.0085065905 -0.39639297
-0.011901385 -0.007495177 -0.39646849
0.023515334 -0.0075305253 -0.39650667
-0.011897362 -0.0064873095 -0.39633366
0.023538399 -0.0067905202 -0.39688
-0.011904778 -0.0054958998 -0.39657447
-0.0119135 -0.0043047168 -0.39684665
-0.011910375 -0.0036616251 -0.39672753
-0.01003 -0.0021875 -0.39625999
0.021637801 -0.0024476 -0.39626098
-0.010039 -0.0015575 -0.39656001
-0.0081644002 -0.0013448 -0.39611
0.021654166 -0.0015101583 -0.39650419
-0.010047 -0.00089020003 -0.39689001
-0.0081697004 -0.00060854998 -0.39636999
0.021651544 -0.00045414252 -0.39645547
-0.0081778504 0.00051763002 -0.39677501
0.019763 0.00095090002 -0.39605001
0.0216631 0.00044000419 -0.39671898
-0.0063073002 0.0018580999 -0.39610001
0.019783085 0.0015346999 -0.39636251
-0.0063108001 0.0024699001 -0.39631999
0.019794201 0.0024964199 -0.39652598
-0.0063157999 0.0033444501 -0.39664501
0.019791083 0.0034873832 -0.39648417
-0.0063204998 0.0041629998 -0.39693999
-0.0044442001 0.0046497001 -0.39614999
0.017896598 0.0047777398 -0.39611998
0.019803444 0.0043823556 -0.39676666
-0.0044478998 0.0055075251 -0.39647999
0.017913917 0.0055184416 -0.396485
-0.0044522332 0.0064550661 -0.39685667
-0.0025802501 0.0067752497 -0.39605001
0.014179799 0.0067318203 -0.39614001
0.016042 0.0066962424 -0.39615861
0.017931599 0.0062476001 -0.39686197
-0.0025825195 0.0074527161 -0.3964676
0.014192334 0.0074689076 -0.39652833
0.016054099 0.0074825697 -0.39652798
-0.0025847 0.00830446 -0.39688599
-0.00071791996 0.0088008996 -0.396146
0.0011445124 0.0086283376 -0.39619002
0.0030069333 0.0088633001 -0.39612666
0.010458429 0.0086522428 -0.39618
0.012319571 0.0086522428 -0.39618
0.014206 0.0081675993 -0.3969
0.016069001 0.0082315793 -0.39688
-0.00071883883 0.0093709333 -0.39660889
0.0011456091 0.0094615715 -0.39656821
0.0030110271 0.0094632721 -0.39663818
0.0048688999 0.0098939994 -0.39616334
0.0067357137 0.0097092288 -0.39629143
0.0085894503 0.0099233501 -0.39613497
0.010470456 0.0094894366 -0.39660454
0.012332818 0.0094894357 -0.39660454
0.00114648 0.010190399 -0.39687198
0.0030139 0.010008 -0.39700001
0.0048762001 0.010374715 -0.39669004
0.0067453664 0.010275333 -0.39685333
0.0086009717 0.010389143 -0.39662287
0.0104785 0.010151001 -0.39693499
0.012343001 0.010151001 -0.39693499
0.0011437667 -0.027174333 -0.3959333
0.0030060001 -0.027079999 -0.39599001
0.0048651998 -0.027009999 -0.39598
0.0085849995 -0.027161 -0.39593998
0.0011429089 -0.026449453 -0.39564183
0.0030035367 -0.026452364 -0.39567998
0.0048619555 -0.026458001 -0.39568889
0.0067246165 -0.026462583 -0.395695
0.0085782921 -0.026458832 -0.39564586
0.010441 -0.026280999 -0.39566001
-0.0025796334 -0.025115 -0.39593998
-0.00071749667 -0.025115667 -0.39593998
0.0011416667 -0.025505111 -0.39523998
0.002999 -0.025307 -0.39512402
0.0030007248 -0.025748 -0.39533499
0.0048566195 -0.025543502 -0.39523
0.0067157662 -0.025530111 -0.39522332
0.0085709207 -0.025483999 -0.39523199
0.010429 -0.025621286 -0.39518857
0.012312333 -0.025109999 -0.3959333
0.014171399 -0.025198799 -0.395888
-0.0025775728 -0.024465727 -0.39561453
-0.00071688549 -0.024465818 -0.39561635
0.012302182 -0.024464183 -0.39561459
0.014162728 -0.024462456 -0.39558908
-0.0063004997 -0.023154333 -0.39593002
-0.0044412753 -0.02320125 -0.39591497
-0.0025742999 -0.023619624 -0.39520377
-0.00071621127 -0.023619626 -0.39520878
0.012288874 -0.023621375 -0.39521
0.014149223 -0.023575891 -0.39522886
0.016034249 -0.023200249 -0.39590502
-0.0062952996 -0.022515817 -0.39558181
-0.0044370084 -0.022472752 -0.39555332
0.016022833 -0.022472834 -0.39555082
-0.0081603136 -0.021382572 -0.39584142
-0.0062887399 -0.021808 -0.39514199
-0.0044321665 -0.021668 -0.39515665
0.015999001 -0.021336 -0.39502999
0.016007001 -0.021669166 -0.39518332
0.017885001 -0.021243334 -0.39586499
-0.0081561832 -0.020524414 -0.39553329
0.017866999 -0.020479817 -0.3954891
-0.0081572095 -0.019499637 -0.39554366
0.017849334 -0.019710666 -0.39513001
0.01975075 -0.01919 -0.39587751
-0.0081542814 -0.018531637 -0.39544365
0.019725181 -0.018530093 -0.3954173
-0.010018571 -0.017370714 -0.39578861
-0.0081460997 -0.017850999 -0.3951
0.019707 -0.017988 -0.39504999
0.021609332 -0.017462555 -0.39578554
-0.010008334 -0.016542833 -0.39546084
0.021588251 -0.016543251 -0.39546418
-0.010007818 -0.015499908 -0.39544362
0.021586547 -0.015499543 -0.39543188
-0.010010584 -0.014519666 -0.39552999
0.021594914 -0.014522084 -0.39558247
-0.010010183 -0.013464547 -0.39552
0.021595908 -0.013468 -0.39560366
-0.010009546 -0.01253118 -0.39550087
0.021579374 -0.01265925 -0.39526248
-0.010010001 -0.011487999 -0.39550415
-0.010010001 -0.0105165 -0.395518
0.0215715 -0.010054 -0.39508498
-0.010009849 -0.0094950236 -0.39550924
0.021588167 -0.0094523169 -0.39544418
-0.010008636 -0.0085132262 -0.39546549
0.021596299 -0.0084899096 -0.39561597
-0.010009999 -0.0074999109 -0.39551297
0.021591753 -0.0075112251 -0.39551666
-0.01001375 -0.006460363 -0.39565498
0.021591548 -0.0064866003 -0.39550635
-0.010010309 -0.005738684 -0.39553076
-0.0099984007 -0.0058229002 -0.3951
0.021590274 -0.0055228095 -0.39549267
-0.010003 -0.0043937499 -0.39524502
-0.0099972999 -0.0048834002 -0.39504999
-0.0081449002 -0.0040425998 -0.39513999
0.021585638 -0.0045343726 -0.39541638
-0.010012 -0.0036314668 -0.3955833
-0.0081495 -0.0034175001 -0.39535999
0.021599168 -0.0035369166 -0.39563668
-0.010023 -0.0027739999 -0.39598
-0.0081568006 -0.0024089501 -0.39572501
0.0197188 -0.0024413301 -0.39526701
0.021619 -0.0029577001 -0.39596
0.019730084 -0.0015065251 -0.39553419
-0.0062945499 -0.000369507 -0.39528501
0.019727366 -0.00045310819 -0.39548272
-0.0063001001 0.00059377 -0.39563999
0.0197444 0.00043909904 -0.395742
-0.0063037002 0.0012309999 -0.39587
-0.0044328002 0.0018524 -0.39511999
-0.0044351998 0.0024625999 -0.39534
0.017847 0.00294435 -0.39504999
-0.00443875 0.00333475 -0.39566499
0.017864091 0.003519109 -0.39542454
-0.0044420999 0.0041510998 -0.39596999
-0.0025746 0.0046371999 -0.39515999
0.014145801 0.0047547799 -0.39513201
0.016004002 0.0048576668 -0.39509001
0.017884167 0.0042600334 -0.39585498
-0.0025768001 0.0054922993 -0.39550498
0.01416 0.0055051087 -0.39550915
0.016021168 0.0055031995 -0.3955017
-0.00257895 0.0063156001 -0.39585
-0.00071614713 0.0065656714 -0.39516857
0.0011414333 0.0066939835 -0.39515829
0.010429 0.0067181285 -0.39518717
0.012288143 0.006718114 -0.3951886
0.014172601 0.0062603401 -0.39589202
0.016034499 0.0061851749 -0.39590001
-0.00071678177 0.0075042546 -0.3955591
0.0011426416 0.0074518169 -0.39555752
0.0029988 0.0079074996 -0.3951
0.010439 0.0074892999 -0.3955718
0.012300818 0.0074892994 -0.3955718
-0.00071738497 0.0083079999 -0.39588165
0.0011437333 0.0081068659 -0.39590999
0.0029996 0.0080022998 -0.39520001
0.0030028713 0.008383872 -0.39562145
0.0048553166 0.008704151 -0.39515999
0.0067142998 0.0087161716 -0.39516428
0.0085686157 0.0086754002 -0.39514998
0.0104495 0.0081374496 -0.39590502
0.012310999 0.0081374496 -0.39590499
0.0048615667 0.0093514211 -0.39562777
0.0067235739 0.0092796003 -0.39561999
0.0085782222 0.0093676895 -0.39563444
0.0011409 -0.025024001 -0.39500001
0.0029978999 -0.025022 -0.39498001
0.0048535001 -0.025012 -0.39497
0.0067109 -0.025049999 -0.39499
0.010423 -0.025140001 -0.39493999
0.0011400998 -0.024481546 -0.39470088
0.0029957183 -0.02448109 -0.39469546
0.0048502539 -0.024477273 -0.39469364
0.0067053363 -0.02449109 -0.3946991
0.0085629635 -0.024491817 -0.39470908
0.010417091 -0.024488909 -0.39466363
-0.0025722999 -0.023138501 -0.39496499
-0.00071587501 -0.023139 -0.39497501
0.0011388999 -0.023662874 -0.39421624
0.0029926284 -0.023710573 -0.39423433
0.0048455712 -0.023713002 -0.3942371
0.0066983998 -0.023703571 -0.39423138
0.008554914 -0.023702856 -0.39422289
0.010407 -0.023657626 -0.39424124
0.012281001 -0.02314 -0.39497501
0.01414 -0.023095001 -0.39500001
-0.0025698585 -0.022499332 -0.3946242
-0.00071539002 -0.022499418 -0.39462665
0.012270916 -0.022499999 -0.39462671
0.014126168 -0.022500416 -0.39463916
-0.0062838667 -0.021282166 -0.39482999
-0.0044293003 -0.0211915 -0.39491498
-0.0025674 -0.021702668 -0.39416003
-0.00071472197 -0.0217494 -0.39416602
0.0122588 -0.021748999 -0.39416796
0.01410875 -0.021793999 -0.39414001
0.015994333 -0.021145666 -0.39493001
-0.0062793754 -0.02047825 -0.39455667
-0.0044250498 -0.020477166 -0.39452586
0.015977092 -0.020520544 -0.39455178
-0.0062794299 -0.019500302 -0.39458194
-0.0044212337 -0.019809667 -0.39411998
0.015959 -0.019902 -0.39410666
0.017838251 -0.019234249 -0.39489499
-0.0062781586 -0.01852875 -0.3944633
0.017819667 -0.018528666 -0.39446414
-0.0081387712 -0.017324286 -0.39477998
-0.0062736496 -0.0179065 -0.39410001
0.017804001 -0.017951 -0.39405999
0.0196939 -0.017463 -0.394768
-0.0081325257 -0.016497999 -0.39451918
0.019683834 -0.016499415 -0.39453587
-0.0081334803 -0.0155056 -0.39457399
0.019686179 -0.015461999 -0.39459267
-0.0081295082 -0.014566584 -0.39434418
0.019676002 -0.014524364 -0.39432001
0.021562999 -0.012138668 -0.39491668
0.021548918 -0.01145725 -0.39460588
0.021556335 -0.010556222 -0.39476219
-0.0081266994 -0.0063931998 -0.39421335
0.019671334 -0.0062323832 -0.39419666
-0.0099926442 -0.0056484328 -0.39488223
-0.0081341332 -0.0054752328 -0.39459333
0.019684 -0.0055082273 -0.39453819
-0.0081406003 -0.0046244999 -0.39491999
0.019682636 -0.0045237634 -0.39452639
-0.0062768497 -0.00343855 -0.39414999
0.0196895 -0.0035278832 -0.39464584
-0.0062819002 -0.0025653001 -0.39447999
0.019703999 -0.0029499 -0.39495
-0.0062873 -0.0016408 -0.394815
-0.0044238502 -0.000368901 -0.39430499
0.017814728 -0.00045079648 -0.39432275
-0.0044276998 0.00059166999 -0.39466
0.015958499 0.00090148998 -0.39407498
0.017823998 0.00048374757 -0.39458725
-0.0044303001 0.0012271 -0.39489001
-0.0025676 0.0018486 -0.39407
0.015971748 0.0015275165 -0.39441669
0.017821832 0.0015272332 -0.39453086
-0.0025690999 0.0024569 -0.39430001
0.014107 0.0028928667 -0.39407
0.015976362 0.0025223272 -0.39456093
0.017833555 0.0024324553 -0.39476782
-0.0025713001 0.0033264 -0.39464
0.014119363 0.0035104095 -0.39445269
0.015975727 0.0035103092 -0.39453
-0.0025732999 0.0041402001 -0.39495999
0.0011386501 0.0047829002 -0.39412001
0.010403667 0.0048368666 -0.39410999
0.012257334 0.0048368666 -0.39410663
0.014134999 0.0042420835 -0.39486501
0.015989751 0.0043419125 -0.394795
-0.00071515434 0.0054952092 -0.39444429
0.0011396908 0.0055342629 -0.39455003
0.010413832 0.0054936837 -0.39452669
0.012268082 0.0054936912 -0.39452419
-0.00071579998 0.0060795499 -0.39493501
0.001140725 0.0062364745 -0.394925
0.00299185 0.006845925 -0.39412749
0.0048450665 0.0067372997 -0.39416501
0.0066978605 0.0067456001 -0.394178
0.0085540833 0.0067477501 -0.39416668
0.01042275 0.0062012752 -0.394925
0.0122795 0.00620125 -0.394925
0.0029952 0.0074315504 -0.39462101
0.0048490362 0.0074745091 -0.39458731
0.0067032105 0.0074482905 -0.39457697
0.0085610831 0.0075119161 -0.39460334
0.00485226 0.0081883995 -0.39491001
0.0067089745 0.0081684757 -0.3949075
0.0085650748 0.0082058497 -0.39491999
0.0011381335 -0.023133667 -0.39388332
0.0029905001 -0.023181001 -0.39388502
0.0048423251 -0.0231835 -0.39388749
0.0066943252 -0.0231735 -0.39388499
0.0085486006 -0.023172751 -0.393875
0.010398667 -0.023128333 -0.39391336
0.0011371364 -0.022482546 -0.39345819
0.0029877545 -0.022482181 -0.39344454
0.0048382636 -0.022482909 -0.39344454
0.0066889091 -0.022480093 -0.39344457
0.0085399812 -0.022479819 -0.39344361
0.010387454 -0.022481274 -0.39346457
-0.0025661001 -0.021226 -0.39385498
-0.00071423798 -0.021272201 -0.39385003
0.0011362 -0.021926001 -0.393085
0.0029852998 -0.0218335 -0.3930825
0.0048347749 -0.0218325 -0.39308
0.0066833249 -0.021835251 -0.393085
0.0085322997 -0.021835249 -0.393085
0.010377999 -0.0219275 -0.39307499
0.0122512 -0.021271799 -0.39385399
0.014098001 -0.021314666 -0.39378834
-0.0025637415 -0.020503582 -0.39337084
-0.0007134417 -0.0205035 -0.39336917
0.012238831 -0.0205035 -0.39336669
0.014085415 -0.020503251 -0.39336252
-0.0044183997 -0.019332856 -0.3938143
-0.00071284501 -0.019896001 -0.39303499
0.01223 -0.019943001 -0.39304999
0.01408309 -0.019492364 -0.39328367
0.015944749 -0.019374875 -0.39372376
-0.0044132825 -0.018526727 -0.39328545
0.014082666 -0.018483503 -0.39327252
0.015930248 -0.018485835 -0.39331922
-0.0062686 -0.017384667 -0.39370555
0.014077 -0.017866001 -0.39307499
0.01593018 -0.017462544 -0.39332095
0.017790601 -0.017430002 -0.39369899
-0.0062634633 -0.01651191 -0.39328364
0.015927546 -0.016509818 -0.39322546
0.017774818 -0.016511364 -0.39326364
-0.006263982 -0.015517455 -0.39331093
0.01777282 -0.015515181 -0.39321634
-0.0062621599 -0.014617699 -0.39321402
0.017778918 -0.014533002 -0.39336586
-0.008115151 -0.013459834 -0.39358082
0.017780336 -0.013449416 -0.39339504
0.019648168 -0.013455585 -0.39357832
-0.0081079397 -0.012497599 -0.39319897
0.017769666 -0.0126945 -0.39316002
0.019634001 -0.0125101 -0.39319599
-0.0081092073 -0.011456309 -0.39326617
0.019636085 -0.0115075 -0.39325583
-0.0081106359 -0.010495182 -0.39334548
0.019640272 -0.010523999 -0.39336815
-0.0081101703 -0.0095164692 -0.39331803
0.019638667 -0.0094926003 -0.39332756
-0.0081099002 -0.008516212 -0.39330003
0.019633818 -0.0084897364 -0.39319178
-0.0081115309 -0.0075928667 -0.39340037
0.019639164 -0.0074732751 -0.39333999
-0.0081216004 -0.0069728 -0.39394999
-0.0062593999 -0.0062982999 -0.39302999
0.017765 -0.0061268499 -0.39306
0.019656802 -0.0067374795 -0.39380401
-0.0062637748 -0.0056104502 -0.39331251
0.017776834 -0.005538167 -0.39331916
-0.0062705502 -0.0045046499 -0.39374501
0.017781364 -0.0045144642 -0.39342183
-0.0044114497 -0.0034292501 -0.39317501
0.017774416 -0.0035179248 -0.39326003
-0.0044149999 -0.0025585 -0.3935
0.017771544 -0.002476491 -0.39318275
-0.0044187503 -0.0016366 -0.39384502
0.017785544 -0.0015435092 -0.39355001
-0.0025622 -0.0003660575 -0.39323002
0.015926167 -0.00022614068 -0.39319503
0.017801 -0.00099732995 -0.39394999
-0.0025645001 0.00059169001 -0.39359
0.015943667 0.00039124448 -0.39367998
-0.0025661001 0.0012252 -0.39383
0.014082251 0.0016965875 -0.393255
-0.00071284 0.0029005001 -0.39304
0.014096499 0.0023813751 -0.39372873
-0.00071334501 0.0036179998 -0.39330751
0.0011366999 0.0036222213 -0.39328361
0.010383182 0.0035856364 -0.39329001
0.01223625 0.0035427499 -0.39326668
-0.00071409199 0.0046063801 -0.393722
0.0011379 0.0042674332 -0.39379668
0.010395572 0.0043709143 -0.39379573
0.012249572 0.0043709427 -0.39379001
-0.00071449002 0.0050679999 -0.39396
0.0029870183 0.0055192551 -0.39333275
0.0048370915 0.005478783 -0.39331999
0.0066870749 0.0054758997 -0.39331582
0.0085374005 0.0054785009 -0.39331999
0.0029899285 0.0063428856 -0.39380288
0.0048417798 0.0062217 -0.39381
0.0066938833 0.0062365667 -0.39383164
0.0085474793 0.00623204 -0.393812
0.0011352112 -0.021402556 -0.39275667
0.0029833002 -0.021313284 -0.39282432
0.0048319856 -0.021312429 -0.39282426
0.006678157 -0.021315429 -0.39282569
0.0085263001 -0.021315427 -0.39282861
0.010370111 -0.021403998 -0.39275002
0.0011340416 -0.020456249 -0.39237079
0.0029798546 -0.02049882 -0.39240092
0.0048265187 -0.020498818 -0.39240092
0.0066694822 -0.020499272 -0.39240086
0.0085160648 -0.020499272 -0.39240092
0.010361667 -0.0204565 -0.39237082
-0.0025593899 -0.0195124 -0.39273199
-0.00071238872 -0.0194235 -0.39280254
0.00113399 -0.0194957 -0.39236298
0.00297715 -0.0199435 -0.39207
0.0048217 -0.0199435 -0.39207
0.00666345 -0.0199435 -0.39207
0.0085080992 -0.0199435 -0.39207
0.010362099 -0.019495297 -0.39236301
0.012222778 -0.019470222 -0.39281666
-0.0025560337 -0.018525166 -0.39235497
-0.00071142911 -0.018523833 -0.39232585
0.0011338334 -0.018522916 -0.39230749
0.01036 -0.018522916 -0.39230749
0.012206916 -0.018523833 -0.39232919
-0.0044065365 -0.017525181 -0.39268818
-0.0025558274 -0.017509907 -0.39236453
0.0011331 -0.017910499 -0.39204499
0.010352001 -0.017910499 -0.39204499
0.014068751 -0.017391499 -0.39280254
-0.0044018584 -0.016507247 -0.39230832
-0.0025554167 -0.016505169 -0.39225331
0.014051201 -0.016592499 -0.392277
-0.0044012363 -0.015473727 -0.39226094
0.015910817 -0.01549409 -0.39268637
-0.0062579503 -0.014074 -0.39294499
-0.0044027669 -0.014496251 -0.39238334
0.015897455 -0.014534911 -0.3922618
-0.0062525803 -0.0135071 -0.39260101
-0.0044033001 -0.0134995 -0.39242902
0.015896363 -0.013535455 -0.39224091
-0.0062473086 -0.012550334 -0.39225665
-0.0044006002 -0.012688889 -0.3922011
0.015903084 -0.012564667 -0.39241251
0.017756999 -0.012221999 -0.39289501
-0.0062478422 -0.011464417 -0.39229086
0.015903668 -0.011479583 -0.39241913
0.017738167 -0.011483333 -0.39248833
-0.0062488415 -0.010499832 -0.3923575
0.01589125 -0.010811 -0.39215249
0.017727457 -0.01049209 -0.39226276
-0.0062485402 -0.0094884904 -0.39233798
0.017730081 -0.0094681084 -0.39232001
-0.0062484331 -0.0084729334 -0.39232996
0.017728001 -0.0084697008 -0.39227638
-0.0062491875 -0.0075103794 -0.39238083
0.015896665 -0.0075366418 -0.39226833
0.017731182 -0.0074961097 -0.39234
-0.0062559671 -0.0067823664 -0.39281332
-0.0043990002 -0.0062814001 -0.39205
0.015904909 -0.0065338449 -0.39243996
0.01775033 -0.0066295895 -0.39275113
-0.0044022249 -0.0055951998 -0.39233753
0.015899668 -0.0055230334 -0.39233413
-0.00440695 -0.0044923499 -0.392775
0.015898911 -0.0045003002 -0.39232361
-0.0025549498 -0.00341825 -0.39210999
0.015899502 -0.0035094332 -0.39231917
-0.0025569999 -0.0025496001 -0.39241999
0.014047427 -0.0022847285 -0.39218143
0.015898366 -0.0024707271 -0.39228371
-0.0025591501 -0.0016302001 -0.392755
0.014054908 -0.0015400182 -0.39237091
0.015903274 -0.0015398 -0.39245635
0.014053418 -0.00049510802 -0.39232829
0.015914334 -0.00076467666 -0.39282835
-0.00071115501 0.000330796 -0.39216501
0.0011331 0.00085061998 -0.39205
0.0029772001 0.00079871999 -0.39207
0.014059091 0.00048231502 -0.3925209
-0.00071180001 0.0013343 -0.39249998
0.001133725 0.00155585 -0.39226496
0.0029789002 0.0015766501 -0.39228168
0.010357546 0.0015636545 -0.39222908
0.012204667 0.0016505555 -0.39226002
0.014071 0.001175575 -0.39289752
-0.00071241497 0.0022652501 -0.39282
0.0011346834 0.0025026167 -0.3925817
0.0029800877 0.00261725 -0.39244503
0.0066628 0.0029668999 -0.39201
0.010369819 0.0025148545 -0.39270088
0.012219728 0.0025147817 -0.39272365
0.0011356167 0.0032033336 -0.39289165
0.0029795647 0.0035059114 -0.39237055
0.0048247902 0.00352928 -0.39227998
0.0066674501 0.0035332332 -0.3922908
0.00851369 0.0035761727 -0.39230183
0.010376 0.0030711 -0.39298999
0.0029826201 0.0045049107 -0.392739
0.0048312815 0.0044660545 -0.39277089
0.0066770101 0.0045099501 -0.39277101
0.0085255392 0.0044982499 -0.39279601
0.0029747109 -0.019421224 -0.39175445
0.0048167999 -0.019421332 -0.39175335
0.0066584549 -0.019420888 -0.39175335
0.0085007334 -0.01942089 -0.39175332
0.0029718333 -0.018479332 -0.39138088
0.004810683 -0.018479334 -0.39138082
0.0066531748 -0.01847925 -0.39138082
0.0084920498 -0.018479249 -0.39137998
-0.0007102064 -0.017479545 -0.39170456
0.0011321444 -0.017387554 -0.39172444
0.0029718273 -0.017462818 -0.39137813
0.004810391 -0.017462999 -0.39138547
0.0066537913 -0.017462999 -0.39138547
0.0084920824 -0.017462999 -0.39137819
0.010341666 -0.017387442 -0.3917233
0.012188181 -0.01747991 -0.39173728
-0.00070953456 -0.01650618 -0.3913573
0.0011310455 -0.016506089 -0.39135274
0.0029712 -0.016504183 -0.39129913
0.0048095821 -0.016504092 -0.39129364
0.006651564 -0.016504183 -0.39129364
0.0084901368 -0.016504182 -0.39129913
0.010329728 -0.016506182 -0.39135274
0.012175817 -0.016505817 -0.39133909
0.014038499 -0.016061001 -0.39192998
-0.00255233 -0.015498398 -0.39172399
-0.00070959458 -0.015527454 -0.3913891
0.0011311 -0.015526816 -0.39136726
0.0029692 -0.015929 -0.39104
0.0048067998 -0.015975 -0.39104
0.0066466001 -0.015975 -0.39104
0.0084840497 -0.015929 -0.39104
0.01033 -0.015527545 -0.39136732
0.012173727 -0.015524635 -0.39126998
0.014026401 -0.0154953 -0.391628
-0.0025498413 -0.014539917 -0.39130998
-0.00070931338 -0.014538419 -0.39124584
0.0011307584 -0.01453825 -0.39124748
0.01032775 -0.014537416 -0.39124751
0.012177584 -0.014541917 -0.39139584
0.014013751 -0.014539 -0.39132583
-0.0025497361 -0.013507363 -0.39129269
0.012179364 -0.013509547 -0.39145458
0.014013365 -0.013504091 -0.39131364
-0.0043970332 -0.012127667 -0.39189997
-0.0025502669 -0.012526249 -0.39138004
0.012172111 -0.012664556 -0.39122444
0.014015752 -0.012534416 -0.3913717
-0.0043926002 -0.011447582 -0.39151916
-0.0025502166 -0.011443333 -0.39137337
0.014015502 -0.011454 -0.39136419
-0.0043896721 -0.010514545 -0.39126635
-0.0025499545 -0.010516364 -0.39133003
0.014015003 -0.010469364 -0.39135
0.015875001 -0.010294857 -0.39180571
-0.0043904362 -0.0095054545 -0.39133275
-0.0025500453 -0.0095058084 -0.39134455
0.014015003 -0.0094791539 -0.39136001
0.015856637 -0.0094805183 -0.39141551
-0.0043909876 -0.0085027628 -0.39138752
-0.0025506001 -0.0085036755 -0.39143127
0.014015003 -0.0085353265 -0.39135182
0.015867364 -0.0085410085 -0.39164725
-0.0043913685 -0.0075110393 -0.39140359
-0.0025498997 -0.0075637996 -0.39132106
0.014015169 -0.0075188256 -0.39135668
-0.0043965667 -0.0067643002 -0.39183334
-0.0025483333 -0.0065205996 -0.39107999
0.014016001 -0.0065141823 -0.39138183
-0.00255015 -0.005579975 -0.39136252
0.014014751 -0.0055080168 -0.39134416
-0.0025525501 -0.0044789501 -0.39173502
0.0121696 -0.0042101601 -0.39114001
0.014011363 -0.0044884179 -0.39126092
-0.00070906 -0.0030431 -0.39109999
0.012177833 -0.0035012166 -0.39140749
0.014020167 -0.0035012998 -0.39148584
-0.00070952001 -0.0022833 -0.39134002
0.0011303499 -0.0025269999 -0.39112502
0.0029690999 -0.0022036999 -0.39102
0.012178818 -0.0024655366 -0.39143544
0.014036001 -0.0027899751 -0.39189249
-0.00070999999 -0.0015032 -0.39157999
0.0011311667 -0.001486 -0.39140001
0.0029707998 -0.0016020999 -0.39125332
0.0048075253 -0.0014123251 -0.39111251
0.012174819 -0.0015353727 -0.39130545
-0.00071049499 -0.00071291497 -0.39183
0.0011319499 -0.00046251999 -0.391675
0.0029738748 -0.00052542629 -0.39164001
0.0048097433 -0.00042772572 -0.39130715
0.0084885554 -0.00035723089 -0.39123112
0.01032625 -0.0003129135 -0.39120749
0.012174249 -0.0004933665 -0.39128831
0.0011326501 0.00031049002 -0.391895
0.0029762499 0.000374975 -0.39194
0.0048103663 0.00054365234 -0.39137557
0.0084925285 0.00047965898 -0.39139816
0.010339819 0.00048084938 -0.39167184
0.012183727 0.00048109412 -0.39159459
0.004809971 0.0014994714 -0.39134356
0.0066509694 0.00160341 -0.39125502
0.0084914165 0.0015155083 -0.3913525
0.010349 0.0010342 -0.39197001
0.012194666 0.0011268334 -0.39194667
0.0048153456 0.0024613542 -0.39166364
0.0066588894 0.00245933 -0.39174503
0.0084984368 0.0025082275 -0.39165363
0.0048203999 0.0030304999 -0.39199001
0.008506 0.0030630999 -0.39197999
0.0029667111 -0.015411221 -0.39072669
0.00480296 -0.015457401 -0.39072099
0.0066404403 -0.015457201 -0.39072099
0.008476723 -0.015411111 -0.39072669
0.0029635832 -0.014501167 -0.39032665
0.0047986503 -0.014502333 -0.39036247
0.0066333083 -0.014502415 -0.3903625
0.0084673334 -0.01450125 -0.39032671
-0.00070818275 -0.013488456 -0.39066726
0.0011290545 -0.013487726 -0.39067182
0.0029633455 -0.013470181 -0.39029363
0.0047991271 -0.013473818 -0.3904027
0.0066338461 -0.013473909 -0.39040089
0.0084665818 -0.013470455 -0.39029363
0.010314182 -0.013485273 -0.39067271
-0.00070749182 -0.012539818 -0.39031088
0.0011279909 -0.012541092 -0.39030907
0.0029645332 -0.012506167 -0.39044753
0.0047973101 -0.012589701 -0.39024499
0.0066317096 -0.0125894 -0.39024496
0.0084702 -0.012505333 -0.39044917
0.010305583 -0.012500417 -0.39030662
0.012163001 -0.012113667 -0.39092335
-0.0007075367 -0.011495084 -0.39033416
0.00112805 -0.011497668 -0.39033416
0.0029646454 -0.011465273 -0.39046094
0.0084705176 -0.011464181 -0.39046094
0.010306181 -0.011460182 -0.39033452
0.012151635 -0.011467182 -0.39055908
-0.00070764916 -0.010522832 -0.39039329
0.0011282502 -0.010514166 -0.39039662
0.002962657 -0.010710001 -0.39020425
0.0084644994 -0.010712999 -0.39020428
0.010307908 -0.010534 -0.39040634
0.012143362 -0.010530727 -0.39029181
-0.00070762634 -0.0094769085 -0.39038178
