0	0	0	0	0	0	0	0	0	0	0	0	0	0	0	0	0	0	0	0	0	0	0	0	0	0	0	0	0	0	0	0	0	0	0	0	0	0	0	0	0	0	0	0	0	0	0	0	0	0	0	0	0	0	0	0	0	0	0	0	0	0	0	0	0	0	0	0	0	0	0	0	0	0	0	0	0	0	0	0	0	0	0	0	0	0	0	0	0	0	0	0	0	0	0	0	0	0	0	0	0	0	0	0	0	0	0	0	0	0	0	0	0	0	0	0	0	394	0	0	401	400	400	398	403	399	404	0	408	410	404	405	419	416	0	0	0	0	0	0	0	0	0	0	0	0	0	0	0	0	463	469	469	478	488	483	0	483	495	495	490	498	487	492	491	497	481	492	499	500	499	500	504	500	500	493	524	0	0	0	0	0	0	0	0	0	0	0	0	0	0	0	0	0	0	0	0	0	0	0	0	0	0	0	0	127	133	136	137	138	140	140	143	147	149	151	152	152	151	152	152	153	152	153	153	153	154	155	155	154	153	152	148	0	0	0	0	0	0	0	0	0	0	0	0	0	0	0	0	0	0	0	0	0	0	0	0	0	0	0	0	0	0	0	0	0	0	0	0	0	0	0	0	0	0	0	171	170	170	170	170	170	170	171	168	167	163	0	0	0	0	583	589	577	582	583	581	0	0	0	0	0	0	0	0	0	0	0	0	0	0	0	0	0	0	0	0	0	0	0	0	0	0	0	0	0	0	556	556	556	554	555	555	556	559	558	557	556	556	554	555	556	556	556	558	558	556	555	554	554	554	555	557	558	559	559	560	560	559	557	557	556	559	560	561	560	559	557	557	559	559	560	560	560	560	559	559	558	559	559	561	563	563	564	564	563	562	562	563	562	562	563	561	562	562	562	562	563	563	563	564	566	566	567	567	566	565	565	565	564	563	564	563	562	563	564	564	564	565	563	563	562	563	561	563	562	563	565	566	567	567	566	566	565	564	565	565	565	565	565	565	566	566	567	568	568	568	569	568	567	568	567	566	566	566	567	566	567	568	568	567	567	567	566	566	566	565	565	565	567	567	568	567	567	568	569	569	569	569	568	567	568	568	568	567	566	566	566	568	570	572	571	573	570	570	569	568	568	568	568	568	569	568	570	570	570	569	569	567	567	568	569	569	568	569	569	568	568	569	569	567	568	570	569	570	572	573	573	573	574	572	570	570	570	571	571	571	570	568	567	568	569	571	572	573	572	573	570	571	570	571	570	571	571	572	572	571	571	572	572	571	572	572	571	572	570	571	571	572	572	575	574	572	572	571	570	572	572	572	571	571	569	569	570	570	570	571	572	569	568	569	569	568	571	572	572	574	573	573	570	570	570	570	571	570	571	571	572	571	571	572	572	571	572	571	571	571	572	572	573	572	571	572	570	571	571	571	571	570	571	571	571	570	571	570	571	571	571	571	572	572	571	572	569	570	569	571	571	572	571	571	569	568	567	568	567	568	570	570	570	570	570	570	570	571	569	571	571	572	572	573	569	568	568	567	568	569	570	570	570	570	568	568	565	566	566	567	567	567	567	567	565	565	566	565	566	565	565	565	564	564	563	564	565	568	568	568	566	566	566	566	567	569	568	567	567	567	565	567	565	568	565	567	565	566	564	564	564	564	564	567	569	569	569	563	563	560	560	561	561	561	562	565	562	564	565	565	566	565	568	564	567	565	567	564	561	558	558	555	559	558	559	560	557	559	557	561	558	557	558	558	560	561	564	561	561	562	565	564	565	565	563	560	560	558	559	557	556	557	557	559	558	560	559	558	558	558	560	559	560	559	558	556	557	555	556	556	556	557	556	555	553	554	553	554	551	552	550	553	551	554	553	552	549	551	550	581	611	628	633	629	623	609	595	563	545	545	537	536	534	534	538	535	538	539	0	0	523	0	0	0	0	503	0	0	522	519	0	0	0	0	0	0	0	0	0	0	0	0	0	0	0	0	0	0	0	0	0	0	0	0	497	0	488	504	489	494	491	491	488	489	488	486	480	0	468	463	463	0	0	0	0	0	0	0	0	0	0	0	0	0	0	0	0	0	0	0	0	0	0	0	0	0	0	0	0	0	0	0	0	0	0	0	0	0	0	0	0	0	0	0	0	0	0	0	0	0	0	0	0	0	0	0	0	0	0	0	0	0	0	0	0	0	0	0	0
0	0	0	0	0	0	0	0	0	0	0	0	0	0	0	0	0	0	0	0	0	0	0	0	0	0	0	0	0	0	0	0	0	0	0	0	0	0	0	0	0	0	0	0	0	0	0	0	0	0	0	0	0	0	0	0	0	0	0	0	0	0	0	0	0	0	0	0	0	0	0	0	0	0	0	0	0	0	0	0	0	0	0	0	0	0	0	0	0	0	0	0	0	0	0	0	0	0	0	0	0	0	0	0	0	0	0	0	0	0	0	0	0	0	0	390	397	398	398	402	402	405	402	401	0	409	0	404	409	407	414	410	415	0	397	0	0	0	0	0	0	0	0	0	0	0	0	0	0	0	0	461	467	485	0	478	484	487	484	494	0	493	490	495	492	494	0	502	502	505	512	503	504	506	507	498	507	504	526	0	0	0	0	0	0	0	0	0	0	0	0	0	0	0	0	0	0	0	0	0	0	0	0	0	0	130	133	134	135	137	140	140	143	147	148	150	151	151	151	151	152	152	153	153	153	153	154	155	154	154	151	150	147	0	0	0	0	0	0	0	0	0	0	0	0	0	0	0	0	0	0	0	0	0	0	0	0	0	0	0	0	0	0	0	0	0	0	0	0	0	0	0	0	0	0	171	170	170	171	170	169	170	172	170	170	167	0	0	0	0	0	589	575	585	579	587	0	0	0	0	0	0	0	0	0	0	0	0	0	0	0	0	0	0	0	0	0	0	0	0	0	0	0	0	0	0	559	559	556	554	552	553	554	556	558	557	558	556	556	554	555	555	555	556	556	556	553	554	553	553	553	555	556	556	557	559	558	557	557	557	555	556	559	560	559	559	558	557	556	557	558	558	558	559	559	558	558	560	560	560	562	563	563	563	563	562	561	561	562	562	562	563	562	562	564	564	563	563	563	562	564	564	565	566	565	565	563	563	562	562	563	564	563	562	563	563	563	564	564	563	563	561	561	560	562	561	562	563	564	565	565	566	566	565	564	564	564	564	564	565	565	565	566	568	568	568	567	567	566	565	565	566	566	566	565	566	566	566	566	566	566	566	568	566	566	565	565	564	566	566	567	567	566	566	567	568	567	568	568	566	566	568	568	567	568	567	567	567	569	570	571	570	570	569	568	568	568	567	568	567	567	569	569	571	570	570	569	568	568	568	569	569	569	568	568	568	566	566	568	567	566	568	568	567	568	570	572	572	573	574	572	570	571	571	571	571	571	569	567	566	566	567	568	569	571	569	571	570	570	570	571	570	571	570	569	569	568	568	570	570	571	571	571	572	571	571	570	570	571	571	572	572	571	570	569	569	570	570	570	570	569	568	568	570	570	570	571	571	568	569	569	569	569	572	572	574	573	573	572	571	569	570	568	569	569	570	570	571	569	569	571	570	570	571	571	571	571	571	571	573	572	570	571	571	570	569	570	569	569	568	567	568	568	569	568	570	571	571	571	572	573	572	572	570	569	568	569	569	570	569	569	568	567	566	567	567	567	570	569	570	570	569	569	569	569	568	570	569	572	571	570	569	568	568	565	567	567	567	567	570	567	567	565	566	565	565	567	569	567	566	566	566	565	566	562	560	561	563	563	562	562	561	561	564	564	568	568	566	567	567	566	566	567	566	567	566	567	565	566	564	566	564	564	565	566	566	566	566	567	567	566	567	566	565	560	561	559	561	558	560	560	562	563	563	565	565	566	564	564	565	564	564	562	564	562	564	559	559	555	555	554	556	556	555	556	555	558	558	560	560	559	560	560	563	560	563	565	563	563	562	562	560	560	560	560	560	560	560	560	560	560	559	560	558	558	558	555	559	557	558	558	556	555	555	555	556	558	557	556	556	555	553	553	552	553	550	553	550	550	549	552	550	551	549	550	553	585	606	627	629	621	615	606	571	570	546	544	538	540	0	539	540	535	538	540	537	527	0	0	516	0	0	0	0	0	0	0	0	0	0	0	0	0	0	0	0	0	0	0	0	0	0	0	0	0	501	510	0	0	499	485	502	504	512	493	496	489	487	493	488	0	0	0	489	0	0	0	0	458	0	0	0	0	0	0	0	0	0	0	0	0	0	0	0	0	0	0	0	0	0	0	0	0	0	0	0	0	0	0	0	0	0	0	0	0	0	0	0	0	0	0	0	0	0	0	0	0	0	0	0	0	0	0	0	0	0	0	0	0	0	0	0	0	0	0	0
0	0	0	0	0	0	0	0	0	0	0	0	0	0	0	0	0	0	0	0	0	0	0	0	0	0	0	0	0	0	0	0	0	0	0	0	0	0	0	0	0	0	0	0	0	0	0	0	0	0	0	0	0	0	0	0	0	0	0	0	0	0	0	0	0	0	0	0	0	0	0	0	0	0	0	0	0	0	0	0	0	0	0	0	0	0	0	0	0	0	0	0	0	0	0	0	0	0	0	0	0	0	0	0	0	0	0	0	0	0	0	0	0	0	0	0	0	0	397	396	401	397	402	403	0	0	0	0	408	403	415	411	400	410	0	0	0	0	0	0	0	0	0	0	0	0	0	0	0	0	0	0	0	0	489	489	478	483	482	498	494	500	492	493	493	493	496	491	492	505	510	514	509	513	506	495	497	492	0	0	0	0	0	0	0	0	0	0	0	0	0	0	0	0	0	0	0	0	0	0	0	0	0	0	132	132	133	134	136	138	141	143	145	148	148	149	150	150	150	151	151	151	152	152	152	151	152	153	153	152	151	148	142	0	0	0	0	0	0	0	0	0	0	0	0	0	0	0	0	0	0	0	0	0	0	0	0	0	139	0	0	0	0	0	0	0	0	0	0	0	0	0	0	0	0	168	169	170	170	169	168	168	168	167	165	163	0	0	0	0	0	586	573	569	572	0	0	0	0	0	0	0	0	0	0	0	0	0	0	0	0	0	0	0	0	0	0	0	0	0	0	0	0	0	0	0	554	558	555	555	553	553	552	553	555	557	556	555	555	553	554	554	554	555	553	554	554	553	553	553	554	556	557	556	557	559	557	557	556	555	553	554	556	558	558	557	557	556	555	557	557	558	558	559	559	559	558	559	558	560	561	563	562	563	562	561	560	559	560	560	560	563	562	563	564	564	562	562	562	563	563	563	564	565	563	563	562	563	562	562	563	564	562	561	562	563	563	562	563	562	561	560	562	561	562	562	562	562	563	563	564	565	565	565	565	565	564	564	563	564	564	566	567	569	568	569	567	566	565	565	564	564	564	564	565	565	565	565	565	564	564	566	566	565	566	564	563	563	565	565	566	568	568	566	567	568	567	567	567	566	566	567	567	567	567	567	567	568	569	569	569	569	568	568	568	568	568	568	568	568	567	569	570	570	570	570	569	567	567	567	568	568	570	568	568	567	566	566	567	566	565	567	567	567	568	570	570	570	570	571	570	569	570	571	571	571	570	569	567	566	566	566	567	568	570	570	571	569	570	569	569	569	570	570	569	569	568	567	568	569	569	569	570	570	570	570	569	568	569	568	570	571	571	569	570	569	569	569	570	570	570	569	569	569	568	568	569	569	567	568	567	569	568	570	571	572	571	571	570	570	568	569	568	569	568	569	569	569	568	568	570	570	570	571	570	569	570	570	572	571	572	570	570	569	569	568	569	567	567	567	566	566	566	568	568	569	571	571	571	571	573	571	571	570	568	566	567	567	567	567	568	566	566	565	565	565	567	568	568	569	571	570	570	570	569	568	570	571	571	573	572	571	569	568	568	567	567	566	567	566	566	565	565	564	565	567	566	566	568	567	569	567	566	565	563	562	564	564	564	563	563	560	562	563	566	566	566	566	566	565	565	564	566	564	564	564	566	564	565	563	564	564	565	563	563	564	564	564	565	566	566	567	567	566	562	562	558	559	557	559	559	560	561	564	562	563	563	565	564	566	563	564	563	562	559	560	557	556	554	555	555	557	557	558	558	562	559	560	560	561	558	559	558	560	558	561	560	563	563	564	561	560	559	559	558	559	558	557	556	558	558	559	559	557	556	552	552	554	557	557	555	557	556	556	556	555	555	557	557	556	556	553	555	553	553	551	553	549	551	550	552	550	550	547	550	553	579	618	625	624	622	617	584	567	549	541	539	532	534	532	538	537	537	533	535	541	530	0	0	0	0	0	0	0	0	0	0	0	478	0	0	0	0	0	0	0	0	0	0	0	0	0	0	0	0	0	487	497	0	0	501	0	503	502	488	494	487	487	484	484	485	0	499	481	482	469	0	0	431	0	0	0	0	0	0	0	0	0	0	0	0	0	0	0	0	0	0	0	0	0	0	0	0	0	0	0	0	0	0	0	0	0	0	0	0	0	0	0	0	0	0	0	0	0	0	0	0	0	0	0	0	0	0	0	0	0	0	0	0	0	0	0	0	0	0	0
0	0	0	0	0	0	0	0	0	0	0	0	0	0	0	0	0	0	0	0	0	0	0	0	0	0	0	0	0	0	0	0	0	0	0	0	0	0	0	0	0	0	0	0	0	0	0	0	0	0	0	0	0	0	0	0	0	0	0	0	0	0	0	0	0	0	0	0	0	0	0	0	0	0	0	0	0	0	0	0	0	0	0	0	0	0	0	0	0	0	0	0	0	0	0	0	0	0	0	0	0	0	0	0	0	0	0	0	0	0	0	0	0	0	0	0	0	0	0	0	409	0	402	0	0	0	0	0	399	409	0	410	0	0	0	401	0	0	0	0	0	0	0	0	0	0	0	0	0	0	0	0	0	0	0	464	478	476	490	485	492	490	494	490	493	494	495	500	0	494	503	513	505	499	500	502	497	497	0	0	0	0	0	0	0	0	0	0	0	0	0	0	0	0	0	0	0	0	0	0	0	0	0	130	132	132	133	134	136	138	142	145	147	147	148	148	149	149	150	151	152	151	152	152	152	151	151	151	150	149	150	142	0	0	0	0	0	0	0	0	0	0	0	0	0	0	0	0	0	0	0	0	0	0	0	0	0	0	0	0	0	0	0	0	0	0	0	0	0	0	0	0	0	0	0	168	169	170	170	168	167	167	166	166	165	0	0	0	0	0	0	587	576	577	561	0	0	0	0	0	0	0	0	0	0	0	0	0	0	0	0	0	0	0	0	0	0	0	0	0	0	0	0	0	0	0	558	556	553	554	551	551	551	552	554	555	556	554	555	554	554	553	553	554	553	552	552	552	552	553	554	556	555	556	556	556	555	556	555	556	554	557	556	558	557	558	558	558	557	557	558	557	557	557	557	558	558	559	558	559	559	560	560	561	560	560	559	559	560	560	561	562	562	563	563	563	561	562	561	561	562	562	562	565	564	562	562	562	561	561	562	563	562	562	563	562	562	562	562	562	562	561	561	561	562	562	564	564	562	563	563	563	564	565	565	564	563	562	562	562	564	565	566	567	567	567	566	564	564	563	563	564	564	565	566	566	565	565	564	562	564	565	566	564	564	563	564	563	565	565	566	567	567	566	566	567	565	565	566	566	566	567	568	568	568	567	567	568	568	568	568	568	567	566	567	567	566	567	568	567	567	569	570	570	570	569	568	567	567	568	568	568	568	567	566	566	566	566	568	567	566	567	566	567	567	568	569	569	569	569	569	567	568	569	570	570	570	568	568	566	565	565	567	566	568	568	570	568	568	569	569	569	570	569	569	567	566	565	567	569	569	570	570	568	569	569	569	569	569	567	570	569	569	568	569	568	568	568	569	570	571	569	569	569	567	568	568	569	568	569	568	569	569	570	569	571	569	569	569	569	567	569	567	568	567	566	567	568	567	568	570	569	570	571	570	568	569	569	570	570	571	570	570	569	568	567	567	566	565	565	565	565	565	566	567	568	570	570	569	570	571	569	569	569	568	567	567	567	567	565	567	564	564	563	564	565	566	567	567	569	568	569	569	568	567	568	570	571	572	573	571	570	569	567	567	565	565	565	565	564	564	565	564	566	567	566	567	567	566	567	567	567	567	564	562	561	562	564	562	563	562	562	562	563	564	565	565	565	565	565	565	564	564	563	565	564	567	564	564	563	565	564	563	564	563	564	563	563	564	564	565	565	565	565	561	561	558	561	557	558	556	559	560	560	562	561	562	562	563	564	562	560	560	561	560	561	559	557	554	554	553	556	558	558	558	559	560	562	560	559	558	558	557	559	561	561	561	563	562	561	558	558	557	556	557	558	557	558	558	558	558	559	557	557	553	553	553	552	555	556	557	557	557	555	556	557	557	555	556	555	556	554	554	552	552	548	548	548	550	549	551	551	549	551	552	556	577	603	617	616	620	606	0	552	545	546	541	539	538	539	542	530	542	0	534	530	0	0	0	0	0	495	0	0	0	0	0	0	0	0	0	0	0	0	0	0	0	0	0	0	0	0	0	0	0	0	0	483	494	501	0	509	500	500	498	498	494	485	486	482	0	474	0	0	492	0	0	0	0	0	0	0	0	0	0	0	0	0	0	0	0	0	0	0	0	0	0	0	0	0	0	0	0	0	0	0	0	0	0	0	0	0	0	0	0	0	0	0	0	0	0	0	0	0	0	0	0	0	0	0	0	0	0	0	0	0	0	0	0	0	0	0	0	0	0	0
0	0	0	0	0	0	0	0	0	0	0	0	0	0	0	0	0	0	0	0	0	0	0	0	0	0	0	0	0	0	0	0	0	0	0	0	0	0	0	0	0	0	0	0	0	0	0	0	0	0	0	0	0	0	0	0	0	0	0	0	0	0	0	0	0	0	0	0	0	0	0	0	0	0	0	0	0	0	0	0	0	0	0	0	0	0	0	0	0	0	0	0	0	0	0	0	0	0	0	0	0	0	0	0	0	0	0	0	0	0	0	0	0	0	0	0	0	0	0	398	396	0	399	396	0	0	416	411	0	0	0	0	0	0	0	0	0	0	0	0	0	0	0	0	0	0	0	0	0	0	0	0	0	0	0	476	0	0	482	481	487	486	490	488	492	490	497	496	496	0	494	496	497	503	497	504	491	503	487	479	0	0	0	0	0	0	0	0	0	0	0	0	0	0	0	0	0	0	0	0	0	0	0	132	133	133	134	135	138	141	143	145	147	147	147	147	149	149	150	150	151	151	151	152	151	150	150	149	148	145	143	0	0	0	0	0	0	0	0	0	0	0	0	0	0	0	0	0	0	0	0	0	0	0	0	0	0	0	0	0	0	0	0	0	0	0	0	0	0	0	0	0	0	0	165	169	169	170	169	168	166	165	163	164	157	0	0	0	0	0	0	591	580	565	0	0	0	0	0	0	0	0	0	0	0	0	0	0	0	0	0	0	0	0	0	0	0	0	0	0	0	0	0	0	0	551	550	551	551	553	551	550	549	551	552	553	554	553	552	553	553	551	553	553	552	551	550	551	551	551	554	555	555	556	555	556	555	555	556	556	554	555	554	555	555	556	556	558	558	557	557	556	555	556	556	557	556	557	556	556	556	557	557	558	559	559	558	558	559	560	560	562	562	563	561	561	560	560	559	559	561	562	561	563	563	562	561	561	561	561	562	562	562	563	564	564	562	562	561	560	560	562	562	562	562	562	562	562	562	562	563	563	564	565	564	563	562	561	561	562	563	564	565	566	566	565	565	565	565	564	564	564	565	565	567	567	567	565	564	563	563	563	563	562	562	560	561	562	562	564	565	566	565	565	564	565	563	564	564	564	565	566	566	568	568	568	567	567	566	566	566	567	566	565	566	566	566	565	566	566	566	567	568	569	570	570	569	567	567	566	567	567	568	567	565	565	564	565	567	566	565	566	565	565	567	567	567	566	566	568	567	567	569	570	569	570	570	569	568	567	566	564	566	566	567	567	569	566	567	567	568	568	569	570	569	568	566	566	568	569	569	569	569	568	568	569	569	568	569	567	568	567	568	567	568	568	569	568	568	570	570	569	569	569	567	567	568	569	566	569	566	566	566	567	566	568	566	566	567	567	567	568	567	567	568	567	568	568	567	567	569	567	567	568	568	566	567	567	568	568	570	568	568	568	568	567	566	566	565	565	564	565	566	566	567	568	570	568	568	570	570	567	567	568	567	566	568	568	568	566	568	566	566	563	565	566	565	566	567	567	567	567	569	567	567	566	568	570	571	572	571	569	569	567	567	566	567	564	565	564	564	564	565	566	567	567	566	566	565	566	568	567	566	564	562	561	563	564	564	565	563	561	563	563	563	563	563	562	564	565	566	564	565	565	566	566	566	563	565	564	564	565	563	563	563	563	560	560	562	563	563	563	564	563	561	561	559	560	558	559	559	560	560	559	559	559	559	561	563	564	561	562	560	561	560	559	558	555	553	555	555	557	559	562	560	562	564	561	559	558	555	554	556	557	557	558	560	560	562	560	557	558	554	555	555	556	556	558	556	558	557	558	557	554	553	551	549	552	551	556	558	558	559	556	557	555	555	554	554	554	555	555	555	552	552	548	547	547	549	549	551	550	548	545	546	558	573	605	616	621	611	597	0	546	544	538	535	534	537	535	537	540	541	533	0	0	0	0	0	0	493	0	486	0	0	0	0	0	0	0	0	0	0	0	0	0	0	0	0	0	0	0	0	0	518	0	496	0	0	496	0	508	501	498	496	489	483	486	482	481	483	0	480	0	496	472	472	0	0	0	0	0	0	0	0	0	0	0	0	0	0	0	0	0	0	0	0	0	0	0	0	0	0	0	0	0	0	0	0	0	0	0	0	0	0	0	0	0	0	0	0	0	0	0	0	0	0	0	0	0	0	0	0	0	0	0	0	0	0	0	0	0	0	0	0	0
0	0	0	0	0	0	0	0	0	0	0	0	0	0	0	0	0	0	0	0	0	0	0	0	0	0	0	0	0	0	0	0	0	0	0	0	0	0	0	0	0	0	0	0	0	0	0	0	0	0	0	0	0	0	0	0	0	0	0	0	0	0	0	0	0	0	0	0	0	0	0	0	0	0	0	0	0	0	0	0	0	0	0	0	0	0	0	0	0	0	0	0	0	0	0	0	0	0	0	0	0	0	0	0	0	0	0	0	0	0	0	0	0	0	0	0	0	0	402	0	0	399	398	401	403	0	398	0	400	0	395	0	0	0	419	0	0	0	0	0	0	0	0	0	0	0	0	0	0	0	0	0	0	470	0	0	0	474	476	479	484	483	487	489	492	493	496	490	0	489	500	491	493	496	494	492	486	494	0	0	0	0	0	0	0	0	0	0	0	0	0	0	0	0	0	0	0	0	0	0	0	0	129	131	132	134	135	136	138	141	144	145	146	146	146	146	147	148	149	150	151	151	152	152	151	150	149	147	146	143	141	0	0	0	0	0	0	0	0	0	0	0	0	0	0	0	0	0	0	0	0	0	0	0	0	0	0	0	0	0	0	0	0	0	0	0	0	0	0	0	0	0	0	0	166	169	170	171	169	169	166	165	163	161	0	0	0	0	0	0	0	586	582	594	0	0	0	0	0	0	0	0	0	0	0	0	0	0	0	0	0	0	0	0	0	0	0	0	0	0	0	0	0	0	0	551	547	552	552	551	549	549	548	547	549	550	551	550	552	552	552	551	551	551	550	549	550	550	551	552	553	554	554	553	551	553	552	553	554	555	554	554	555	554	555	556	557	558	558	557	556	555	555	555	555	556	556	557	557	556	556	557	556	556	556	556	556	558	560	561	560	562	562	561	560	560	559	559	559	560	560	560	562	561	561	559	559	559	559	559	559	561	561	561	563	563	561	560	561	561	560	562	562	562	562	561	560	561	561	561	562	563	563	563	563	562	563	561	562	562	564	565	567	568	567	566	566	564	564	563	563	563	565	565	567	567	566	565	565	563	563	564	562	562	562	561	562	562	563	564	564	565	564	564	562	564	562	564	564	564	564	565	565	566	567	567	566	566	565	566	565	565	565	565	565	565	565	564	564	565	565	567	568	569	570	570	568	568	567	567	566	567	568	567	564	565	564	566	568	568	566	567	566	565	566	565	565	565	566	567	567	566	568	568	569	569	569	569	568	568	566	565	566	566	567	567	567	565	566	566	568	568	569	569	568	566	565	564	565	568	567	568	566	566	565	567	567	568	569	567	567	566	567	565	566	565	565	566	566	568	569	569	570	570	567	568	567	567	566	568	566	567	567	567	567	567	567	566	567	567	566	567	565	566	565	566	567	567	566	565	566	565	565	566	567	566	565	566	566	567	568	568	567	568	568	566	565	565	565	565	565	565	565	566	566	566	568	568	568	568	568	566	566	567	567	566	568	567	566	565	565	563	563	563	564	564	565	566	565	565	566	565	567	568	567	566	568	567	569	569	570	568	567	565	565	565	566	565	566	565	564	565	566	566	564	567	564	565	565	566	567	567	565	565	562	562	563	564	564	564	563	563	563	564	564	563	563	563	564	565	565	565	564	565	566	565	565	563	564	564	563	564	564	563	563	564	562	561	562	561	562	562	562	561	560	560	560	559	557	559	559	559	560	560	559	560	559	560	560	561	559	560	561	562	561	561	558	556	555	553	556	558	559	559	559	557	559	557	556	553	555	554	557	556	557	559	560	561	558	557	555	552	553	554	553	556	556	559	555	556	558	555	554	553	552	551	550	552	552	554	556	558	558	557	557	555	555	553	553	553	554	554	556	553	550	547	547	546	548	551	549	550	545	547	550	553	568	608	611	604	604	572	550	544	0	538	538	538	539	538	540	534	541	0	541	0	0	522	0	513	488	483	0	0	0	0	0	0	0	0	0	0	0	0	0	0	0	0	0	0	0	0	0	0	500	0	500	0	485	489	0	506	512	498	503	496	494	487	494	0	0	482	478	0	0	0	0	0	0	0	0	0	0	0	0	0	0	0	0	0	0	0	0	0	0	0	0	0	0	0	0	0	0	0	0	0	0	0	0	0	0	0	0	0	0	0	0	0	0	0	0	0	0	0	0	0	0	0	0	0	0	0	0	0	0	0	0	0	0	0	0	0	0	0	0	0
0	0	0	0	0	0	0	0	0	0	0	0	0	0	0	0	0	0	0	0	0	0	0	0	0	0	0	0	0	0	0	0	0	0	0	0	0	0	0	0	0	0	0	0	0	0	0	0	0	0	0	0	0	0	0	0	0	0	0	0	0	0	0	0	0	0	0	0	0	0	0	0	0	0	0	0	0	0	0	0	0	0	0	0	0	0	0	0	0	0	0	0	0	0	0	0	0	0	0	0	0	0	0	0	0	0	0	0	0	0	0	0	0	0	0	0	0	0	0	399	401	402	400	403	401	402	408	408	413	0	0	0	410	0	403	407	0	0	0	0	0	0	0	0	0	0	0	0	0	0	0	0	0	0	471	0	0	0	0	477	480	484	489	490	490	494	496	493	501	493	498	499	498	495	491	495	497	494	0	0	481	0	0	0	0	0	0	0	0	0	0	0	0	0	0	0	0	0	0	0	0	0	130	132	133	134	135	139	141	144	145	146	146	146	146	147	148	147	148	149	150	150	150	150	150	148	147	146	143	139	0	0	0	0	0	0	0	0	0	0	0	0	0	0	0	0	0	0	0	0	0	0	0	0	0	0	0	0	0	0	0	0	0	0	0	0	0	0	0	0	0	0	0	168	168	168	168	169	168	168	166	165	161	156	0	0	0	0	0	0	0	590	586	588	0	0	0	0	0	0	0	0	0	0	0	0	0	0	0	0	0	0	0	0	0	0	0	0	0	0	0	0	0	0	0	549	543	549	549	549	547	547	546	546	547	549	550	549	549	549	550	550	551	550	550	550	550	550	551	552	553	554	553	551	552	552	552	553	554	554	553	552	553	553	554	555	555	556	557	556	556	555	555	555	555	556	556	556	555	555	555	556	556	555	555	555	555	556	558	560	559	561	560	559	557	558	557	557	558	558	558	559	559	560	560	559	559	559	560	559	559	559	559	561	562	562	560	561	559	560	560	561	561	562	561	561	561	560	560	561	563	563	563	563	564	562	562	562	562	563	565	566	567	566	565	565	566	564	564	564	563	562	564	564	566	565	565	565	564	563	564	563	562	561	560	560	560	561	562	564	564	565	563	563	563	563	563	564	564	563	563	563	563	564	565	566	565	565	565	566	565	565	565	564	564	564	563	562	563	564	564	567	567	568	568	569	567	567	567	566	565	566	567	566	564	565	565	566	567	567	567	566	567	566	566	564	564	563	563	564	566	567	568	566	567	567	567	567	567	567	565	565	566	565	566	566	567	565	565	566	566	568	568	569	568	568	567	567	567	568	567	567	566	566	565	566	567	567	568	567	567	567	566	566	566	565	564	565	566	566	567	568	568	569	566	568	567	568	567	568	566	566	566	566	566	566	566	564	565	565	565	566	565	566	567	566	566	566	566	564	565	565	565	566	566	565	565	565	566	566	568	568	565	566	567	566	566	567	566	566	566	565	566	566	567	566	568	568	567	566	567	564	565	565	566	564	567	565	566	564	566	565	564	564	564	564	566	566	565	564	565	565	567	567	567	566	566	566	569	569	569	570	567	564	565	566	566	566	565	563	562	563	564	564	564	565	563	564	564	565	565	565	565	565	563	564	565	566	565	565	564	564	565	564	565	562	561	560	562	564	564	565	565	566	565	565	562	563	562	560	562	561	562	563	563	564	561	560	559	559	560	559	560	559	559	558	558	559	559	559	562	562	560	560	559	559	558	559	559	560	557	560	560	559	559	559	557	555	557	556	557	557	559	557	561	558	558	554	556	554	553	553	555	555	555	556	556	559	559	558	554	553	551	552	552	556	557	556	556	554	555	555	552	552	552	552	550	551	551	551	553	555	557	554	555	554	552	551	551	552	553	555	554	552	550	548	546	548	546	549	547	546	543	542	538	550	566	598	612	606	595	560	548	543	535	538	540	534	532	528	540	537	542	532	0	0	0	0	0	0	0	496	0	0	0	0	0	0	0	0	0	0	0	0	0	0	0	0	0	0	0	0	0	500	0	0	0	495	507	0	493	0	501	498	487	490	487	492	491	474	475	472	489	0	0	0	0	0	0	0	0	0	0	0	0	0	0	0	0	0	0	0	0	0	0	0	0	0	0	0	0	0	0	0	0	0	0	0	0	0	0	0	0	0	0	0	0	0	0	0	0	0	0	0	0	0	0	0	0	0	0	0	0	0	0	0	0	0	0	0	0	0	0	0	0	0
0	0	0	0	0	0	0	0	0	0	0	0	0	0	0	0	0	0	0	0	0	0	0	0	0	0	0	0	0	0	0	0	0	0	0	0	0	0	0	0	0	0	0	0	0	0	0	0	0	0	0	0	0	0	0	0	0	0	0	0	0	0	0	0	0	0	0	0	0	0	0	0	0	0	0	0	0	0	0	0	0	0	0	0	0	0	0	0	0	0	0	0	0	0	0	0	0	0	0	0	0	0	0	0	0	0	0	0	0	0	0	0	0	0	0	0	0	0	0	0	396	399	397	399	398	404	0	403	0	402	0	403	416	405	411	408	414	0	0	0	0	0	0	0	0	0	0	0	0	0	0	0	0	0	0	0	481	0	468	472	485	484	494	490	495	492	494	503	493	501	497	0	499	492	497	497	495	488	0	0	0	0	0	0	0	0	0	0	0	0	0	0	0	0	0	0	0	0	128	0	128	0	130	132	134	136	137	140	143	145	145	145	145	146	146	146	147	147	148	149	150	150	150	150	150	149	148	145	143	138	0	0	0	0	0	0	0	0	0	0	0	0	0	0	0	0	0	0	0	0	0	0	0	0	0	0	0	0	0	0	0	0	0	0	0	0	0	0	0	0	0	0	169	168	169	169	168	169	167	167	164	163	161	157	0	0	0	0	0	0	595	587	581	0	0	0	0	0	0	0	0	0	0	0	0	0	0	0	0	0	0	0	0	0	0	0	0	0	0	0	0	0	0	0	552	544	548	548	547	550	548	546	546	546	546	547	548	546	548	548	547	548	549	550	550	550	550	552	551	551	552	551	550	549	550	550	553	553	554	554	555	554	554	554	554	555	555	555	556	556	556	555	555	553	554	555	555	554	555	555	555	556	556	554	555	554	554	556	557	558	559	559	558	558	557	558	557	557	557	557	558	559	559	559	560	558	557	558	558	559	559	559	559	561	561	561	560	560	558	559	560	561	560	560	560	560	560	560	560	561	563	562	562	562	562	562	563	562	562	563	563	563	565	564	563	565	565	565	565	564	563	562	563	563	565	564	564	565	564	564	565	563	563	561	562	560	562	563	562	562	564	564	563	562	563	563	563	564	565	563	562	562	564	565	566	565	565	564	563	563	562	563	563	563	562	563	562	562	562	564	563	565	565	567	566	567	565	566	566	565	564	566	564	565	562	564	563	565	566	566	567	566	565	563	564	562	563	563	564	564	566	566	567	565	566	565	565	565	567	567	565	565	564	565	565	566	566	565	565	566	567	567	567	568	567	565	566	566	567	568	568	568	567	566	565	567	567	567	568	569	567	568	566	566	565	564	564	565	565	566	566	567	568	568	567	567	566	566	566	567	566	565	566	565	565	564	565	564	564	564	565	565	565	566	566	567	566	567	566	564	565	564	564	566	566	565	564	566	564	565	566	568	566	567	566	566	565	566	566	566	566	566	565	565	565	564	566	566	565	565	566	564	565	564	566	564	566	565	565	564	566	564	563	563	564	565	564	564	564	562	564	565	566	566	567	564	564	564	565	566	568	566	563	562	563	565	566	566	566	565	564	564	564	563	563	562	563	563	564	563	563	564	563	564	563	564	564	564	563	563	562	562	563	563	562	561	561	562	562	563	562	562	564	564	563	563	563	562	562	562	561	562	560	562	562	562	560	559	559	558	559	558	558	559	558	557	559	559	560	560	562	561	562	562	561	560	558	559	556	559	556	558	556	560	558	556	556	553	554	554	555	555	557	558	556	557	554	553	553	555	554	554	554	554	555	555	555	554	556	554	552	550	548	551	550	554	553	553	554	555	553	552	551	552	553	555	551	553	552	552	552	552	554	553	554	553	550	550	551	552	552	553	552	550	550	546	546	547	548	547	545	545	542	541	541	549	561	597	604	599	569	557	547	540	537	535	534	528	534	529	527	526	537	521	0	0	0	0	0	0	487	0	496	0	0	0	0	0	0	0	0	0	0	0	0	0	0	0	0	0	0	0	497	502	0	0	0	0	500	493	0	495	501	499	491	492	488	485	484	0	465	476	467	0	0	0	0	0	0	0	0	0	0	0	0	0	0	0	0	0	0	0	0	0	0	0	0	0	0	0	0	0	0	0	0	0	0	0	0	0	0	0	0	0	0	0	0	0	0	0	0	0	0	0	0	0	0	0	0	0	0	0	0	0	0	0	0	0	0	0	0	0	0	0	0	0
0	0	0	0	0	0	0	0	0	0	0	0	0	0	0	0	0	0	0	0	0	0	0	0	0	0	0	0	0	0	0	0	0	0	0	0	0	0	0	0	0	0	0	0	0	0	0	0	0	0	0	0	0	0	0	0	0	0	0	0	0	0	0	0	0	0	0	0	0	0	0	0	0	0	0	0	0	0	0	0	0	0	0	0	0	0	0	0	0	0	0	0	0	0	0	0	0	0	0	0	0	0	0	0	0	0	0	0	0	0	0	0	0	0	0	0	0	0	0	0	391	398	401	403	401	402	410	407	409	406	0	412	407	0	0	0	0	0	0	0	0	0	0	0	0	0	0	0	0	0	0	0	0	0	476	490	0	470	0	478	0	490	491	490	492	489	494	499	495	500	504	509	499	505	499	499	499	501	0	0	0	0	0	0	0	0	0	0	0	0	0	0	0	0	0	0	0	0	0	0	129	129	133	134	135	138	139	143	144	147	146	147	147	146	146	146	147	147	148	148	149	150	150	149	149	148	146	144	142	0	0	0	0	0	0	0	0	0	0	0	0	0	0	0	0	0	0	0	0	0	0	0	0	0	0	0	0	0	0	0	0	0	0	0	0	0	0	0	0	0	0	165	167	168	168	168	167	166	166	166	163	162	158	0	0	0	0	0	0	601	571	591	569	0	0	0	0	0	0	0	0	0	0	0	0	0	0	0	0	0	0	0	0	0	0	0	0	0	0	0	0	0	0	556	540	548	547	549	549	550	548	546	546	545	546	546	546	546	547	547	545	547	549	549	550	550	551	552	552	551	551	551	550	550	550	552	553	552	554	554	553	552	553	552	552	551	551	552	554	555	554	555	554	553	553	553	554	553	555	554	556	556	556	555	555	555	554	555	555	556	557	558	558	559	557	557	556	557	556	555	556	557	557	558	557	557	555	555	557	557	556	557	558	558	559	560	557	557	557	558	558	560	560	561	560	560	559	559	559	560	561	561	561	561	561	560	561	561	561	562	562	562	563	562	562	563	565	565	565	564	563	562	561	562	562	562	563	563	564	563	564	564	563	562	563	559	561	561	561	562	563	562	561	561	562	563	564	565	564	562	562	560	562	563	564	563	563	563	561	562	561	561	562	563	562	563	562	562	561	562	562	564	564	565	566	566	565	565	564	564	563	564	563	563	561	563	561	562	564	564	564	565	564	563	562	561	560	561	561	563	565	566	567	566	565	563	564	564	565	565	565	565	565	566	566	567	566	566	565	565	566	566	566	567	566	565	567	567	567	568	568	566	565	565	565	566	565	565	566	567	567	567	566	566	564	564	564	565	565	564	565	566	566	567	566	566	565	565	565	567	566	565	565	563	563	563	564	564	565	564	565	564	565	564	566	566	565	566	565	563	564	564	564	565	565	564	564	564	563	565	566	567	566	566	566	565	565	566	566	565	566	565	564	565	565	564	566	566	565	564	566	564	565	564	565	563	565	563	564	564	565	564	564	564	565	563	564	563	562	563	563	563	565	565	563	562	562	562	563	565	566	565	563	563	561	564	565	565	565	565	562	563	563	563	563	563	562	562	562	561	561	562	562	562	562	564	563	563	563	563	562	562	562	561	560	559	561	561	562	562	563	562	561	562	563	562	562	560	562	562	560	560	560	561	561	563	561	560	559	558	558	558	558	558	556	555	558	559	558	561	561	561	562	562	561	559	557	558	556	557	557	556	556	556	557	555	556	556	555	555	556	554	557	556	556	556	555	554	553	554	553	554	553	554	551	551	552	552	552	553	550	549	549	550	550	552	553	554	553	553	553	554	552	553	550	553	552	550	551	549	549	549	552	552	552	551	550	551	550	551	550	551	550	548	548	549	547	545	545	544	542	543	537	536	542	541	583	593	592	583	567	556	542	535	536	532	531	528	525	0	524	522	537	538	533	0	0	0	0	0	0	0	0	0	0	0	0	0	0	0	0	0	0	0	0	0	0	0	0	0	0	0	0	492	489	0	0	0	0	496	489	492	0	487	495	497	486	488	468	477	0	452	465	0	0	0	0	0	0	0	0	0	0	0	0	0	0	0	0	0	0	0	0	0	0	0	0	0	0	0	0	0	0	0	0	0	0	0	0	0	0	0	0	0	0	0	0	0	0	0	0	0	0	0	0	0	0	0	0	0	0	0	0	0	0	0	0	0	0	0	0	0	0	0	0	0
0	0	0	0	0	0	0	0	0	0	0	0	0	0	0	0	0	0	0	0	0	0	0	0	0	0	0	0	0	0	0	0	0	0	0	0	0	0	0	0	0	0	0	0	0	0	0	0	0	0	0	0	0	0	0	0	0	0	0	0	0	0	0	0	0	0	0	0	0	0	0	0	0	0	0	0	0	0	0	0	0	0	0	0	0	0	0	0	0	0	0	0	0	0	0	0	0	0	0	0	0	0	0	0	0	0	0	0	0	0	0	0	0	0	0	0	0	0	0	0	0	0	0	0	393	0	0	0	403	409	408	400	410	412	0	405	0	0	0	0	0	0	0	0	0	0	0	0	0	0	0	0	0	468	462	0	488	0	476	465	482	480	0	494	490	495	490	493	498	506	493	504	507	499	509	495	492	485	0	0	0	0	0	0	0	0	0	0	0	0	0	0	0	0	0	0	0	0	127	130	129	130	131	133	136	138	140	143	144	145	146	146	146	146	146	145	146	146	147	148	149	149	150	149	148	147	145	142	0	0	0	0	0	0	0	0	0	0	0	0	0	0	0	0	0	0	0	0	0	0	0	0	0	0	0	0	0	0	0	0	0	0	0	0	0	0	0	0	0	0	165	166	167	169	168	168	166	165	164	162	160	157	0	0	0	0	0	0	0	588	588	564	0	0	0	0	0	0	0	0	0	0	0	0	0	0	0	0	0	0	0	0	0	0	0	0	0	0	0	0	0	0	0	548	548	550	550	547	548	546	546	547	546	544	543	544	545	545	545	545	544	544	546	547	548	550	550	552	552	551	550	549	549	548	550	550	551	550	552	552	552	553	553	553	552	552	551	552	553	554	554	553	552	552	552	552	552	553	555	555	556	556	556	555	555	555	555	554	555	555	555	556	556	556	556	558	556	556	555	555	556	556	557	557	554	554	552	554	555	557	556	558	558	558	558	558	557	557	556	557	557	557	558	559	559	560	561	560	559	560	559	559	559	560	560	560	562	561	561	562	562	562	562	561	561	562	564	564	563	563	561	560	560	561	561	561	561	562	563	561	563	563	563	562	563	561	562	561	562	561	563	562	561	562	563	564	564	564	565	563	562	561	562	561	562	562	562	561	560	561	560	560	561	562	561	562	560	560	560	561	561	563	563	564	565	564	563	563	563	563	562	564	563	562	561	563	560	562	562	564	564	564	563	563	562	562	561	561	561	562	564	564	565	564	564	562	563	562	563	564	564	565	565	566	565	565	565	565	564	565	565	566	565	565	565	563	566	565	566	567	566	564	564	564	563	564	564	565	565	567	567	568	566	566	564	564	564	565	565	565	565	566	566	566	565	565	565	565	566	567	567	567	567	565	565	564	565	564	565	565	566	564	565	565	565	564	564	564	563	563	563	564	563	563	564	565	564	564	564	567	566	567	565	566	564	563	563	564	565	565	566	566	564	564	564	563	563	564	563	562	563	562	562	562	563	562	563	562	562	561	562	561	561	562	562	561	562	561	559	561	563	562	564	565	563	561	561	560	563	563	564	565	564	562	564	564	563	563	562	562	560	563	563	562	563	564	563	562	562	561	561	562	562	562	562	563	562	562	562	562	561	563	561	561	561	560	561	563	562	562	561	560	559	560	560	560	560	560	561	559	559	559	560	560	562	561	558	558	558	558	559	559	559	558	558	558	557	557	556	557	558	559	558	561	559	559	557	558	557	558	557	556	554	555	554	556	554	554	555	554	555	556	556	557	554	554	552	553	551	553	552	554	554	553	554	552	552	549	552	548	548	547	546	547	549	549	549	550	551	550	552	551	550	550	550	551	550	551	551	547	550	550	553	553	552	551	550	550	550	550	548	549	549	546	547	547	545	544	544	545	542	540	541	541	542	0	575	583	588	572	557	546	541	536	531	527	529	522	527	519	530	523	523	522	0	0	0	0	503	493	494	487	501	0	0	0	0	0	0	0	0	0	0	0	0	0	0	0	0	0	0	492	480	499	503	502	0	0	0	0	0	0	500	495	494	489	495	480	476	483	474	475	476	484	0	0	0	0	0	0	0	0	0	0	0	0	0	0	0	0	0	0	0	0	0	0	0	0	0	0	0	0	0	0	0	0	0	0	0	0	0	0	0	0	0	0	0	0	0	0	0	0	0	0	0	0	0	0	0	0	0	0	0	0	0	0	0	0	0	0	0	0	0	0	0	0
0	0	0	0	0	0	0	0	0	0	0	0	0	0	0	0	0	0	0	0	0	0	0	0	0	0	0	0	0	0	0	0	0	0	0	0	0	0	0	0	0	0	0	0	0	0	0	0	0	0	0	0	0	0	0	0	0	0	0	0	0	0	0	0	0	0	0	0	0	0	0	0	0	0	0	0	0	0	0	0	0	0	0	0	0	0	0	0	0	0	0	0	0	0	0	0	0	0	0	0	0	0	0	0	0	0	0	0	0	0	0	0	0	0	0	0	0	0	0	0	0	0	401	0	404	405	404	410	407	418	417	0	0	0	404	407	411	0	0	0	0	0	0	0	0	0	0	0	0	0	0	0	0	0	468	473	480	0	0	480	489	485	485	485	485	489	491	491	497	499	499	503	502	506	505	0	499	0	0	0	0	0	0	0	0	0	0	0	0	0	0	0	0	0	0	0	0	0	128	129	130	131	132	134	137	139	141	142	144	145	146	146	146	145	145	145	145	146	147	147	147	148	148	147	146	145	138	0	0	0	0	0	0	0	0	0	0	0	0	0	0	0	0	0	0	0	0	0	0	0	0	0	0	0	0	0	0	0	0	0	0	0	0	0	0	0	0	0	0	0	0	163	164	166	166	165	163	162	160	159	158	151	0	0	0	0	0	592	576	585	556	563	0	0	0	0	0	0	0	0	0	0	0	0	0	0	0	0	0	0	0	0	0	0	0	0	0	0	0	0	0	0	0	550	546	548	547	548	548	547	545	547	547	547	544	545	545	544	545	545	544	545	546	548	549	550	550	551	549	550	549	550	549	551	551	551	552	552	552	552	554	553	553	552	550	550	549	551	551	553	552	553	552	551	551	549	551	550	552	552	554	555	555	555	556	556	555	554	553	553	552	554	554	555	555	556	556	555	555	555	555	556	556	555	554	554	552	554	554	555	555	555	556	557	556	557	557	558	556	557	557	557	557	558	558	559	559	560	559	560	560	559	559	560	560	559	560	559	559	560	561	560	560	559	559	561	561	561	561	561	559	559	559	560	561	561	561	562	562	561	562	562	562	562	562	561	561	561	561	560	562	561	560	560	562	563	564	564	565	562	562	561	562	561	562	561	562	561	561	561	559	560	562	562	561	561	560	559	559	561	560	561	562	562	562	563	562	562	564	564	562	564	563	562	561	561	560	561	562	562	561	562	562	563	562	562	561	560	559	560	563	564	564	564	563	560	561	561	561	562	563	562	564	565	565	565	565	565	564	564	564	564	564	564	564	563	565	565	566	567	566	564	564	564	563	564	564	563	563	565	566	567	566	566	565	565	565	565	564	565	564	565	564	564	563	564	564	565	566	568	567	565	566	565	563	563	565	564	564	565	564	563	565	564	565	564	564	563	564	563	562	562	562	562	561	562	564	565	565	567	567	567	565	565	564	562	563	562	564	563	564	564	563	563	563	562	563	564	562	561	561	560	560	561	562	561	562	562	561	561	562	561	560	561	561	560	560	560	561	561	562	561	561	561	561	560	560	561	561	562	563	563	562	562	563	563	562	562	561	560	559	562	562	564	564	564	561	561	560	559	560	560	560	561	562	562	562	561	559	558	560	560	559	560	561	559	560	561	561	561	560	559	558	558	558	558	558	557	558	554	558	558	560	561	561	560	559	558	556	557	559	559	558	558	556	557	556	557	556	556	557	558	558	559	559	558	558	556	556	556	554	554	555	553	554	554	556	555	556	554	554	554	554	555	555	555	553	551	551	549	550	551	551	552	552	553	551	550	550	547	546	543	543	546	548	548	550	548	549	550	551	553	550	550	550	549	550	550	548	546	548	550	550	550	550	550	547	548	548	548	546	546	546	546	544	545	543	544	542	541	539	540	541	538	543	542	553	569	582	566	554	547	535	533	530	523	523	518	520	522	521	528	0	0	516	0	519	0	506	489	494	0	0	0	0	0	0	0	0	0	0	0	0	0	0	0	0	0	0	0	0	0	0	0	0	0	0	0	502	0	496	490	497	491	502	494	487	494	488	492	487	477	481	486	0	0	0	0	0	0	0	0	0	0	0	0	0	0	0	0	0	0	0	0	0	0	0	0	0	0	0	0	0	0	0	0	0	0	0	0	0	0	0	0	0	0	0	0	0	0	0	0	0	0	0	0	0	0	0	0	0	0	0	0	0	0	0	0	0	0	0	0	0	0	0	0
0	0	0	0	0	0	0	0	0	0	0	0	0	0	0	0	0	0	0	0	0	0	0	0	0	0	0	0	0	0	0	0	0	0	0	0	0	0	0	0	0	0	0	0	0	0	0	0	0	0	0	0	0	0	0	0	0	0	0	0	0	0	0	0	0	0	0	0	0	0	0	0	0	0	0	0	0	0	0	0	0	0	0	0	0	0	0	0	0	0	0	0	0	0	0	0	0	0	0	0	0	0	0	0	0	0	0	0	0	0	0	0	0	0	0	0	0	0	0	0	0	0	0	393	405	394	406	408	414	410	407	0	0	0	0	400	405	0	0	0	0	0	0	0	0	0	0	0	0	0	0	0	0	0	0	479	470	0	481	0	0	478	478	481	485	485	489	492	493	0	0	496	0	496	0	494	484	0	0	0	0	0	0	0	0	0	0	0	0	0	0	0	0	0	0	0	0	130	131	132	132	133	133	135	137	139	141	141	143	144	144	146	146	145	145	145	145	146	147	147	147	148	147	147	146	145	139	0	0	0	0	0	0	0	0	0	0	0	0	0	0	0	0	0	0	0	0	0	0	0	0	0	0	0	0	0	0	0	0	0	0	0	0	0	0	0	0	0	0	0	162	164	165	167	166	166	163	160	159	156	153	0	0	0	0	0	0	591	582	0	568	0	0	0	0	0	0	0	0	0	0	0	0	0	0	0	0	0	0	0	0	0	0	0	0	0	0	0	0	0	0	0	544	544	547	548	547	546	546	545	546	543	546	544	545	545	542	543	544	544	544	545	546	547	547	549	550	550	548	548	548	549	548	549	551	550	551	549	551	551	552	553	552	552	549	551	549	552	552	553	551	551	551	550	551	550	550	550	550	551	552	553	554	555	556	556	555	555	555	554	553	553	554	555	555	556	556	555	555	554	555	556	556	555	552	552	551	553	552	555	554	555	555	556	556	556	557	557	555	556	555	555	555	556	556	557	559	558	559	560	559	558	558	558	557	558	559	558	558	558	558	558	558	558	559	560	560	560	559	559	558	558	558	560	560	560	561	561	562	561	562	561	561	561	562	560	561	561	560	560	560	559	559	559	561	562	564	563	564	563	562	560	560	560	560	560	561	560	560	560	560	559	562	562	563	563	562	561	559	560	559	560	560	561	561	562	561	562	562	562	562	563	562	562	561	561	560	561	561	562	562	562	562	562	562	563	562	561	559	559	561	560	563	562	561	560	561	560	561	562	563	563	564	563	564	563	564	563	564	564	564	563	563	563	562	562	565	564	565	566	565	564	563	563	563	563	562	563	564	565	565	566	566	566	564	565	565	566	565	566	564	565	564	564	562	563	563	563	564	565	564	563	565	564	564	564	565	563	564	563	564	563	564	562	564	563	563	563	565	563	563	562	561	561	561	561	563	564	564	566	566	566	565	566	564	563	563	562	562	562	564	563	563	563	562	562	563	564	561	561	560	559	559	561	562	562	562	562	560	561	559	558	558	559	559	559	560	560	560	561	559	560	560	560	559	560	561	559	559	560	561	562	562	562	562	563	562	561	560	559	558	561	561	564	563	563	560	560	558	559	559	559	560	560	561	561	561	559	559	559	559	559	560	560	559	559	560	561	559	559	557	557	555	555	555	557	557	558	558	558	559	557	559	561	561	560	558	556	556	556	558	559	559	560	558	556	557	556	554	555	556	558	557	558	558	558	556	557	556	555	554	557	553	553	552	552	556	555	554	552	551	552	552	553	551	553	551	552	548	547	547	548	551	551	553	552	552	548	549	542	543	542	545	546	547	548	548	547	548	548	550	548	550	547	547	548	547	546	546	547	549	551	551	551	550	548	549	550	548	547	547	547	546	545	544	545	543	542	544	541	542	541	541	541	544	546	561	569	566	549	544	543	533	532	528	527	526	523	521	517	524	524	0	0	0	0	0	510	495	0	507	0	0	0	0	0	0	0	0	0	0	0	0	0	0	0	0	0	0	0	0	0	492	492	0	503	0	496	495	490	497	494	492	493	494	494	495	493	494	0	0	485	482	0	0	0	0	0	0	0	0	0	0	0	0	0	0	0	0	0	0	0	0	0	0	0	0	0	0	0	0	0	0	0	0	0	0	0	0	0	0	0	0	0	0	0	0	0	0	0	0	0	0	0	0	0	0	0	0	0	0	0	0	0	0	0	0	0	0	0	0	0	0	0	0	0
0	0	0	0	0	0	0	0	0	0	0	0	0	0	0	0	0	0	0	0	0	0	0	0	0	0	0	0	0	0	0	0	0	0	0	0	0	0	0	0	0	0	0	0	0	0	0	0	0	0	0	0	0	0	0	0	0	0	0	0	0	0	0	0	0	0	0	0	0	0	0	0	0	0	0	0	0	0	0	0	0	0	0	0	0	0	0	0	0	0	0	0	0	0	0	0	0	0	0	0	0	0	0	0	0	0	0	0	0	0	0	0	0	0	0	0	0	0	0	0	0	0	0	0	405	400	406	407	413	410	413	399	0	0	410	0	407	407	419	0	0	0	0	0	0	0	0	0	0	0	0	0	0	0	0	0	468	476	0	0	479	482	482	482	484	484	490	491	496	496	495	495	494	0	0	506	513	0	0	0	0	0	0	0	0	0	0	0	0	0	0	0	0	0	0	0	125	128	129	131	132	134	135	137	138	140	140	141	142	144	145	146	145	144	144	144	144	145	146	146	146	145	145	143	143	138	0	0	0	0	0	0	0	0	0	0	0	0	0	0	0	0	0	0	0	0	0	0	0	0	0	0	0	0	0	0	0	0	0	0	0	583	0	0	0	0	0	0	0	164	162	164	164	164	163	162	160	158	157	154	0	0	0	0	0	0	571	571	565	549	547	0	0	0	0	0	0	0	0	0	0	0	0	0	0	0	0	0	0	0	0	0	0	0	0	0	0	0	0	0	0	543	541	544	544	544	545	545	545	544	545	547	546	549	547	547	544	543	545	545	544	545	545	545	545	547	547	548	546	547	547	549	549	550	551	550	548	547	548	548	550	551	551	551	549	550	549	552	551	552	551	551	551	551	553	552	552	551	550	549	550	551	552	553	554	553	553	554	553	553	553	553	554	555	554	555	555	554	553	553	554	552	553	552	551	551	551	552	552	553	552	552	553	553	553	555	555	557	556	556	553	553	553	556	555	557	559	558	559	560	559	557	558	556	556	556	557	555	556	556	557	558	558	558	558	558	557	556	556	557	556	556	557	558	558	559	561	561	562	561	561	561	560	559	561	561	561	562	560	560	559	559	558	558	559	561	563	562	563	563	562	559	559	557	557	558	559	559	560	560	560	560	562	561	562	562	560	560	559	558	559	560	559	560	561	561	561	562	562	562	562	563	562	561	562	561	561	561	563	561	561	561	561	562	562	563	562	560	559	559	560	560	562	561	559	559	560	559	559	560	561	562	563	563	564	563	562	562	563	563	563	563	563	562	562	563	565	566	565	566	564	562	561	561	561	562	561	560	562	562	563	564	564	565	564	565	564	565	563	564	563	564	562	563	561	562	562	563	564	564	563	564	564	563	564	564	563	562	562	562	562	562	563	562	562	563	563	562	565	563	564	562	561	559	559	559	561	562	563	566	565	565	564	565	564	563	563	562	563	562	563	563	562	561	560	561	561	561	560	560	560	559	560	561	560	560	559	560	558	560	558	559	558	558	558	557	558	560	559	560	560	558	557	559	559	559	560	560	560	561	559	560	561	560	562	563	562	560	559	558	557	559	560	562	561	560	557	557	556	557	558	557	559	560	560	559	560	558	557	556	558	559	559	559	560	557	558	559	557	557	558	558	556	556	556	556	556	556	557	558	557	558	560	561	563	560	558	556	557	555	557	557	557	557	556	556	554	554	553	553	555	555	557	557	559	559	558	556	555	553	556	555	552	554	553	554	554	556	554	554	552	551	550	552	552	552	553	548	544	544	546	547	550	551	556	552	552	552	547	547	542	543	543	545	548	550	547	548	548	548	552	550	550	547	548	548	546	546	544	549	546	549	548	550	548	548	548	547	546	546	545	545	546	544	543	543	541	541	541	540	540	539	540	539	543	542	559	565	552	548	537	540	533	530	527	524	522	522	517	518	515	521	526	0	0	514	511	498	0	500	514	0	0	0	0	0	0	0	0	0	0	0	0	0	0	0	0	0	0	0	500	0	0	0	0	0	0	0	506	0	494	490	489	492	492	489	493	485	487	481	0	0	480	0	0	0	0	0	0	0	0	0	0	0	0	0	0	0	0	0	0	0	0	0	0	0	0	0	0	0	0	0	0	0	0	0	0	0	0	0	0	0	0	0	0	0	0	0	0	0	0	0	0	0	0	0	0	0	0	0	0	0	0	0	0	0	0	0	0	0	0	0	0	0	0	0
0	0	0	0	0	0	0	0	0	0	0	0	0	0	0	0	0	0	0	0	0	0	0	0	0	0	0	0	0	0	0	0	0	0	0	0	0	0	0	0	0	0	0	0	0	0	0	0	0	0	0	0	0	0	0	0	0	0	0	0	0	0	0	0	0	0	0	0	0	0	0	0	0	0	0	0	0	0	0	0	0	0	0	0	0	0	0	0	0	0	0	0	0	0	0	0	0	0	0	0	0	0	0	0	0	0	0	0	0	0	0	0	0	0	0	0	0	0	0	0	0	0	0	0	0	0	403	406	412	407	415	389	409	399	403	401	399	409	413	414	0	0	0	0	0	0	0	0	0	0	0	0	0	0	0	473	0	474	0	0	469	477	476	481	478	485	492	489	496	498	499	492	491	0	0	0	0	0	0	0	0	0	0	0	0	0	0	0	0	0	0	0	0	0	0	0	126	131	131	132	132	134	135	137	138	139	139	140	141	142	143	145	144	144	144	144	144	145	145	145	145	144	144	142	139	0	0	0	0	0	0	0	0	0	0	0	0	0	0	0	0	0	0	0	0	0	0	0	0	0	0	0	0	0	0	0	0	0	0	0	0	0	587	0	0	0	0	0	155	160	164	164	164	165	164	160	159	157	153	148	0	0	0	0	0	597	0	578	568	0	0	0	0	0	0	0	0	0	0	0	0	0	0	0	0	0	0	0	0	0	0	0	0	0	0	0	0	0	0	0	548	543	544	541	543	543	544	545	545	544	544	544	546	546	546	544	543	543	542	545	544	543	544	545	544	544	546	545	543	545	545	547	548	550	550	549	548	548	547	547	549	550	549	550	548	550	549	551	551	551	550	549	550	551	552	552	552	550	549	548	549	549	551	551	552	552	553	553	553	554	555	553	553	554	554	555	556	554	554	553	553	552	553	551	552	551	551	552	552	553	554	553	554	555	555	555	556	557	555	555	552	552	552	553	554	555	556	556	557	558	558	557	557	555	555	556	557	556	557	557	557	557	558	557	557	556	556	556	557	557	556	556	556	557	557	558	559	560	562	561	561	561	560	559	560	560	561	560	559	559	559	558	558	558	560	560	561	561	563	561	561	560	560	559	558	558	559	559	560	560	560	561	563	562	561	562	560	559	558	559	557	559	558	559	559	559	560	560	561	561	562	562	561	560	561	560	560	562	563	560	561	560	561	560	563	563	562	561	560	560	560	560	561	561	560	559	560	558	558	559	559	559	561	561	561	560	561	561	562	561	563	562	562	560	561	561	563	564	564	564	563	562	561	561	562	561	561	560	561	561	562	564	564	564	563	564	563	564	564	565	563	563	561	561	561	561	561	563	563	562	562	562	563	563	564	563	562	560	560	560	560	561	563	561	562	562	561	561	563	562	561	561	561	559	559	560	561	561	562	564	564	563	562	563	563	563	563	563	563	561	562	562	562	560	561	560	559	559	559	558	558	559	559	560	559	559	557	559	557	557	558	559	557	557	557	557	558	559	559	560	560	559	559	561	561	561	561	561	560	561	559	560	560	561	562	561	561	559	558	557	557	558	559	561	558	557	556	556	555	556	558	558	560	560	560	558	558	557	557	557	558	558	558	559	561	560	559	557	556	557	557	556	556	556	554	554	555	556	557	556	557	558	559	558	559	558	558	556	553	554	554	555	555	555	556	555	553	553	554	553	554	556	555	556	558	559	557	555	555	555	554	551	552	550	549	552	552	553	553	553	551	548	550	551	551	552	551	549	544	544	545	545	547	550	552	554	551	549	546	548	547	548	546	547	548	547	546	546	548	547	550	549	549	547	546	547	549	548	542	548	543	546	545	546	546	546	545	548	546	544	544	544	545	543	543	543	542	541	542	540	540	538	540	538	541	551	546	553	549	541	540	537	528	529	528	531	529	526	522	521	518	511	0	0	0	508	0	508	503	0	0	0	0	0	0	0	0	0	0	0	0	0	0	0	0	0	0	0	0	0	500	487	499	0	518	0	0	0	505	500	495	492	0	486	494	487	0	476	0	497	0	0	0	0	0	0	0	0	0	0	0	0	0	0	0	0	0	0	0	0	0	0	0	0	0	0	0	0	0	0	0	0	0	0	0	0	0	0	0	0	0	0	0	0	0	0	0	0	0	0	0	0	0	0	0	0	0	0	0	0	0	0	0	0	0	0	0	0	0	0	0	0	0	0	0	0
0	0	0	0	0	0	0	0	0	0	0	0	0	0	0	0	0	0	0	0	0	0	0	0	0	0	0	0	0	0	0	0	0	0	0	0	0	0	0	0	0	0	0	0	0	0	0	0	0	0	0	0	0	0	0	0	0	0	0	0	0	0	0	0	0	0	0	0	0	0	0	0	0	0	0	0	0	0	0	0	0	0	0	0	0	0	0	0	0	0	0	0	0	0	0	0	0	0	0	0	0	0	0	0	0	0	0	0	0	0	0	0	0	0	0	0	0	0	0	0	0	0	0	0	0	0	398	401	406	409	0	400	0	0	0	0	407	0	411	0	0	0	0	0	0	0	0	0	0	0	0	0	0	0	0	0	0	479	0	0	0	482	479	482	487	491	494	492	501	499	494	0	505	0	0	0	0	0	0	0	0	0	0	0	0	0	0	0	0	0	0	0	0	0	0	123	127	129	130	130	132	134	136	138	139	140	140	140	141	142	142	144	143	143	144	144	145	145	146	145	144	142	141	139	133	0	0	0	0	0	0	0	0	0	0	0	0	0	0	0	0	0	0	0	0	0	0	0	0	0	0	0	0	0	0	0	0	0	0	0	0	0	0	0	0	0	0	0	160	163	163	163	163	163	161	160	158	155	151	0	0	0	0	0	0	574	577	0	563	0	0	0	0	0	0	0	0	0	0	0	0	0	0	0	0	0	0	0	0	0	0	0	0	0	0	0	0	0	0	0	0	542	541	540	541	542	542	545	545	544	545	545	546	545	546	543	543	542	544	546	545	545	544	546	544	543	544	544	543	544	545	547	547	549	550	550	548	548	548	548	547	549	549	549	547	548	548	548	548	550	550	549	550	551	552	550	551	550	549	548	549	549	550	551	551	551	552	551	551	552	553	553	554	554	554	554	554	554	555	552	552	552	552	551	552	552	552	551	551	552	553	553	553	554	553	554	555	557	555	555	553	552	552	554	555	556	555	554	556	557	557	556	556	554	554	555	555	554	555	554	555	555	556	555	556	556	555	555	555	556	555	555	555	556	555	556	557	558	559	560	560	560	559	558	559	560	561	559	558	558	557	556	557	558	558	558	560	560	561	560	561	559	559	558	559	559	561	560	561	561	562	561	562	561	561	561	561	559	559	558	557	558	558	559	559	559	559	561	560	562	563	562	561	561	561	560	562	562	563	560	560	559	559	558	560	560	560	559	560	560	560	560	560	559	559	559	560	558	558	558	558	558	559	560	561	561	562	561	561	561	561	560	561	561	561	561	563	563	563	563	563	562	562	561	562	562	560	560	561	560	561	563	563	562	563	563	563	563	562	563	561	562	561	561	560	561	562	562	562	562	562	561	561	562	561	561	560	559	559	558	559	560	561	561	562	562	560	559	562	562	562	561	561	559	559	559	560	561	562	564	564	564	563	563	563	562	562	561	561	560	560	560	561	559	559	558	557	557	558	557	558	559	559	559	557	556	555	556	556	558	558	558	557	557	556	556	556	556	558	558	557	559	560	561	561	561	561	561	559	559	557	557	557	558	560	560	560	559	558	558	558	558	558	558	555	553	556	554	554	555	556	555	557	558	558	556	556	556	555	555	556	555	556	555	557	555	556	553	554	554	556	555	557	555	555	554	555	556	555	556	557	556	557	557	557	556	557	556	557	556	553	553	552	552	554	553	552	553	553	553	554	555	555	556	558	556	556	554	554	551	549	551	549	549	549	549	551	551	549	553	551	550	552	552	554	552	550	546	548	540	542	544	546	547	551	550	551	553	546	550	546	547	542	545	543	545	547	542	549	550	552	551	550	547	548	544	546	549	545	543	542	544	541	545	543	545	544	545	544	541	542	543	544	543	542	542	540	539	539	538	537	536	538	537	537	541	548	551	538	538	536	531	533	533	527	525	523	527	521	517	513	527	0	0	0	506	495	503	0	0	0	0	0	0	0	0	0	0	0	0	0	0	0	0	0	0	0	0	0	0	498	0	0	0	0	0	0	499	502	499	498	492	494	0	479	487	483	0	0	0	0	0	0	0	0	0	0	0	0	0	0	0	0	0	0	0	0	0	0	0	0	0	0	0	0	0	0	0	0	0	0	0	0	0	0	0	0	0	0	0	0	0	0	0	0	0	0	0	0	0	0	0	0	0	0	0	0	0	0	0	0	0	0	0	0	0	0	0	0	0	0	0	0	0	0	0
0	0	0	0	0	0	0	0	0	0	0	0	0	0	0	0	0	0	0	0	0	0	0	0	0	0	0	0	0	0	0	0	0	0	0	0	0	0	0	0	0	0	0	0	0	0	0	0	0	0	0	0	0	0	0	0	0	0	0	0	0	0	0	0	0	0	0	0	0	0	0	0	0	0	0	0	0	0	0	0	0	0	0	0	0	0	0	0	0	0	0	0	0	0	0	0	0	0	0	0	0	0	0	0	0	0	0	0	0	0	0	0	0	0	0	0	0	0	0	0	0	0	0	0	0	0	401	398	403	402	404	0	405	402	400	401	407	409	0	437	0	0	0	0	0	0	0	0	0	0	0	0	0	0	0	0	0	0	0	463	0	483	0	478	489	486	485	500	500	491	499	502	0	0	0	0	0	0	0	0	0	115	0	0	0	0	0	0	0	0	0	0	0	0	124	127	128	131	131	131	132	135	137	138	139	139	139	140	141	141	142	143	143	143	144	144	144	144	145	145	144	142	140	137	134	0	126	0	0	0	0	0	0	0	0	0	0	0	0	0	0	0	0	0	0	0	0	0	0	0	0	0	0	0	0	0	0	0	0	0	0	0	0	0	0	0	0	154	161	162	163	163	163	162	161	159	156	151	0	0	0	0	0	0	0	0	575	564	536	0	0	0	0	0	0	0	0	0	0	0	0	0	0	0	0	0	0	0	0	0	0	0	0	0	0	0	0	0	0	0	0	546	541	540	541	541	543	545	543	543	544	544	545	543	545	543	542	541	544	543	542	545	543	544	544	544	543	542	543	543	543	545	545	548	548	549	548	548	547	547	546	547	548	548	548	547	549	550	549	550	550	549	550	550	551	550	551	550	550	549	549	547	548	549	549	549	551	552	552	553	554	554	554	554	553	553	555	554	553	552	550	550	551	552	552	552	552	551	552	552	553	553	553	553	553	553	553	553	553	552	551	552	552	553	554	555	554	553	555	556	556	556	556	555	555	555	555	556	556	555	555	556	556	555	555	554	554	553	555	556	555	554	555	554	554	554	556	557	557	559	559	559	559	558	557	558	558	556	557	557	557	556	559	558	559	558	559	557	558	558	558	558	559	558	559	559	560	559	560	560	561	560	561	560	561	560	560	560	559	558	557	558	557	558	558	557	558	559	559	560	561	560	559	559	560	560	561	562	563	560	560	558	558	558	559	560	559	558	559	559	559	560	560	559	559	560	560	559	560	559	559	559	559	560	560	560	560	559	560	559	559	559	560	561	560	560	562	561	560	561	562	560	561	561	562	561	559	559	560	560	561	563	563	563	564	563	563	564	563	563	561	560	559	559	560	560	561	561	561	561	561	561	561	561	561	560	559	559	560	558	560	559	560	559	560	559	559	558	560	561	560	561	560	559	558	558	558	559	560	562	561	562	562	562	561	562	562	562	561	560	560	559	561	559	559	558	557	557	555	557	556	558	558	559	556	556	554	555	554	557	557	558	558	557	557	555	555	556	557	556	559	559	561	562	561	560	560	559	559	559	558	559	559	559	560	559	558	556	556	558	558	559	556	556	553	553	554	554	554	555	558	555	557	559	558	555	555	556	557	557	557	555	555	556	556	554	554	552	552	552	557	556	558	556	555	553	554	553	554	555	556	555	556	555	555	555	555	556	557	554	552	553	551	554	553	553	552	553	553	554	554	555	554	554	556	554	554	554	555	549	550	548	548	547	548	548	549	550	551	549	550	551	551	551	551	550	550	550	545	544	544	547	547	548	550	550	551	550	550	550	548	549	544	545	540	542	541	544	546	548	550	552	549	550	544	550	547	548	547	545	540	542	541	546	543	544	548	544	545	540	542	542	543	543	544	543	542	540	540	538	538	537	537	534	538	536	543	545	536	536	532	530	531	530	523	529	526	527	531	527	513	0	0	0	492	497	501	0	491	0	0	0	0	0	0	0	0	0	0	0	0	0	0	0	0	0	0	0	0	0	0	0	507	519	526	513	497	500	505	499	495	489	479	483	489	479	0	480	0	0	0	0	0	0	0	0	0	0	0	0	0	0	0	0	0	0	0	0	0	0	0	0	0	0	0	0	0	0	0	0	0	0	0	0	0	0	0	0	0	0	0	0	0	0	0	0	0	0	0	0	0	0	0	0	0	0	0	0	0	0	0	0	0	0	0	0	0	0	0	0	0	0	0	0	0	0
0	0	0	0	0	0	0	0	0	0	0	0	0	0	0	0	0	0	0	0	0	0	0	0	0	0	0	0	0	0	0	0	0	0	0	0	0	0	0	0	0	0	0	0	0	0	0	0	0	0	0	0	0	0	0	0	0	0	0	0	0	0	0	0	0	0	0	0	0	0	0	0	0	0	0	0	0	0	0	0	0	0	0	0	0	0	0	0	0	0	0	0	0	0	0	0	0	0	0	0	0	0	0	0	0	0	0	0	0	0	0	0	0	0	0	0	0	0	0	0	0	0	0	0	0	0	0	395	397	403	397	401	395	0	395	0	409	0	0	0	0	0	0	0	0	0	0	0	0	0	0	0	0	0	0	0	0	466	0	0	0	0	476	492	482	493	490	497	492	503	0	498	0	0	0	0	0	0	0	0	0	0	0	0	0	0	0	0	0	0	0	0	0	121	124	127	128	129	130	130	132	134	137	138	139	140	140	141	141	141	142	142	142	141	142	142	143	142	143	143	142	140	137	132	0	0	0	0	0	0	0	0	0	0	0	0	0	0	0	0	0	0	0	0	0	0	0	0	0	0	0	0	0	0	0	0	0	0	0	0	0	0	0	0	0	0	0	160	161	162	162	162	161	161	159	156	154	149	0	0	0	0	0	0	0	577	574	0	0	574	0	0	0	0	0	0	0	0	0	0	0	0	0	0	0	0	0	0	0	0	0	0	0	0	0	0	0	0	0	0	541	541	538	538	539	541	540	542	543	542	543	543	544	542	543	542	542	541	542	541	540	540	542	540	543	543	543	540	541	542	542	543	544	546	546	548	548	548	547	546	546	546	546	547	547	546	546	546	547	547	548	548	548	548	549	548	549	548	548	548	548	547	548	548	548	549	550	550	549	551	552	551	552	552	552	551	553	553	551	552	549	550	550	551	551	552	551	551	550	552	552	553	554	553	553	553	552	553	553	552	551	552	551	552	553	554	553	553	555	555	555	556	555	554	554	554	554	554	554	554	553	554	555	554	554	554	554	553	554	554	554	554	554	554	553	553	554	555	557	558	559	559	559	557	557	557	557	556	555	556	557	557	559	559	559	558	557	557	558	558	559	558	559	558	559	558	558	558	559	559	560	560	561	558	559	559	559	559	560	559	558	558	556	557	558	557	557	559	558	560	561	561	560	559	560	559	561	562	561	559	558	557	557	556	558	558	558	557	558	559	560	561	560	559	559	559	560	560	559	558	558	558	558	561	560	560	560	560	558	558	557	558	558	560	559	559	559	560	560	560	562	561	561	559	560	560	559	558	559	559	560	561	562	561	562	562	561	562	562	561	559	559	558	558	560	559	561	561	561	560	561	561	561	560	561	560	559	559	560	558	558	558	560	558	559	558	557	558	558	558	559	559	559	558	557	557	557	559	560	561	561	562	559	560	560	559	559	560	559	558	559	558	558	557	557	555	556	555	555	556	556	558	557	559	557	556	553	555	554	555	557	558	557	556	556	554	555	554	555	555	558	559	560	561	561	559	558	558	557	556	556	556	557	559	559	558	557	557	556	557	558	557	556	555	553	552	554	554	554	555	556	555	557	558	556	555	556	556	555	555	556	556	556	556	555	553	553	551	553	553	556	555	556	555	554	553	553	552	552	553	554	554	555	553	555	555	556	557	558	555	553	552	552	554	554	553	552	553	553	553	554	555	555	552	554	554	553	552	553	550	549	547	547	548	549	550	550	547	549	549	553	553	552	552	551	550	550	549	545	545	543	542	547	550	552	549	550	549	549	549	543	545	543	541	541	540	541	544	548	548	551	552	550	548	543	544	544	546	546	546	541	541	541	544	544	543	543	542	540	539	540	539	541	542	543	541	540	539	537	536	536	536	535	534	535	540	538	540	538	532	528	530	525	526	525	524	524	522	520	0	0	0	0	0	0	0	0	0	0	0	0	0	0	0	0	0	0	0	0	0	0	0	0	0	0	0	0	0	511	513	0	506	0	521	0	0	494	0	0	503	501	0	0	491	0	0	0	0	480	0	0	0	0	0	0	0	0	0	0	0	0	0	0	0	0	0	0	0	0	0	0	0	0	0	0	0	0	0	0	0	0	0	0	0	0	0	0	0	0	0	0	0	0	0	0	0	0	0	0	0	0	0	0	0	0	0	0	0	0	0	0	0	0	0	0	0	0	0	0	0	0	0	0	0	0	0
0	0	0	0	0	0	0	0	0	0	0	0	0	0	0	0	0	0	0	0	0	0	0	0	0	0	0	0	0	0	0	0	0	0	0	0	0	0	0	0	0	0	0	0	0	0	0	0	0	0	0	0	0	0	0	0	0	0	0	0	0	0	0	0	0	0	0	0	0	0	0	0	0	0	0	0	0	0	0	0	0	0	0	0	0	0	0	0	0	0	0	0	0	0	0	0	0	0	0	0	0	0	0	0	0	0	0	0	0	0	0	0	0	0	0	0	0	0	0	0	0	0	0	0	0	0	0	0	0	402	394	396	400	397	403	394	402	0	425	0	0	0	0	0	0	0	0	0	0	0	0	0	0	0	0	0	455	472	461	0	0	468	0	481	482	482	488	497	493	502	505	0	0	0	0	0	0	0	0	0	0	0	0	0	0	0	0	0	0	0	0	0	123	127	127	129	129	130	131	131	133	134	136	137	139	140	140	141	141	141	141	141	142	142	142	142	142	142	142	142	140	138	132	0	0	0	0	0	0	0	0	0	0	0	0	0	0	0	0	0	0	0	0	0	0	0	0	0	0	0	0	0	0	0	0	0	0	0	0	0	0	0	0	0	0	0	159	158	159	160	160	160	160	160	158	155	150	0	0	0	0	0	0	0	570	0	0	0	0	0	0	0	0	0	0	0	0	0	0	0	0	0	0	0	0	0	0	0	0	0	0	0	0	0	0	0	0	0	0	0	545	540	536	539	538	540	540	541	542	541	540	541	542	541	540	541	541	540	541	541	540	539	543	544	546	545	544	543	542	541	542	541	542	543	545	547	547	547	547	547	546	546	546	546	545	545	546	545	545	547	547	547	547	547	545	545	546	546	547	547	548	547	547	548	547	548	549	550	550	551	551	551	551	550	551	551	552	551	553	550	549	550	550	551	552	553	552	551	550	550	551	552	553	553	553	552	552	552	552	551	551	553	551	551	551	551	550	551	553	554	555	555	555	554	554	554	554	555	554	554	554	554	555	554	553	553	554	552	553	553	554	553	554	552	552	552	553	553	555	555	555	556	556	556	556	556	556	556	556	557	557	557	558	558	558	556	557	556	557	557	557	558	558	558	558	558	558	557	557	558	559	559	559	558	559	558	559	559	560	559	558	558	556	557	557	556	555	556	556	558	560	560	559	559	558	559	560	561	561	559	558	557	556	556	558	557	556	556	557	557	558	559	560	559	560	559	559	560	560	560	558	558	557	559	558	559	559	559	557	556	556	557	557	559	558	558	558	558	558	558	560	559	559	558	560	560	558	558	559	557	557	559	560	559	561	561	560	560	561	560	558	558	557	557	559	559	561	560	560	559	561	560	559	559	560	560	559	560	561	558	559	558	557	556	557	556	556	556	556	557	557	558	557	558	556	557	557	558	557	558	558	559	557	558	558	558	558	559	559	557	557	557	558	558	559	558	557	556	555	555	555	557	556	558	557	558	555	557	555	556	557	558	558	556	555	555	555	555	557	557	556	558	558	558	557	556	555	557	556	556	556	557	556	557	557	556	553	553	553	555	556	555	555	556	553	553	555	555	555	554	556	554	555	556	556	556	556	557	555	555	555	555	556	556	555	554	552	551	551	552	554	555	555	554	552	550	548	549	549	550	553	553	554	553	554	554	556	557	556	554	553	552	553	554	552	553	552	553	553	554	555	554	553	550	550	552	553	555	553	551	549	544	546	546	548	548	550	548	548	550	552	550	549	549	548	548	548	548	546	545	547	548	548	550	550	549	548	549	549	548	547	548	544	545	543	542	540	542	544	547	547	549	548	546	544	543	543	544	542	545	542	542	541	542	545	542	543	543	542	540	540	540	540	540	542	541	540	539	538	537	537	535	534	535	535	532	538	532	533	529	529	530	523	527	521	520	521	521	522	0	534	0	0	0	499	507	0	505	0	0	0	0	0	0	0	0	0	0	0	0	0	0	0	0	0	0	0	0	0	0	0	0	0	507	0	499	512	508	501	494	495	486	0	491	492	492	0	487	0	485	0	0	0	0	0	0	0	0	0	0	0	0	0	0	0	0	0	0	0	0	0	0	0	0	0	0	0	0	0	0	0	0	0	0	0	0	0	0	0	0	0	0	0	0	0	0	0	0	0	0	0	0	0	0	0	0	0	0	0	0	0	0	0	0	0	0	0	0	0	0	0	0	0	0	0	0
0	0	0	0	0	0	0	0	0	0	0	0	0	0	0	0	0	0	0	0	0	0	0	0	0	0	0	0	0	0	0	0	0	0	0	0	0	0	0	0	0	0	0	0	0	0	0	0	0	0	0	0	0	0	0	0	0	0	0	0	0	0	0	0	0	0	0	0	0	0	0	0	0	0	0	0	0	0	0	0	0	0	0	0	0	0	0	0	0	0	0	0	0	0	0	0	0	0	0	0	0	0	0	0	0	0	0	0	0	0	0	0	0	0	0	0	0	0	0	0	0	0	0	0	0	0	0	0	0	392	0	0	399	401	401	0	0	0	418	0	0	0	0	0	0	0	0	0	0	0	0	0	0	0	0	0	455	478	0	470	0	0	0	482	485	491	493	501	497	499	0	0	0	0	0	0	0	0	0	0	0	0	0	0	0	0	0	0	0	0	0	0	123	127	128	128	128	130	131	132	134	135	136	138	139	140	141	141	141	140	141	140	140	141	142	142	143	143	142	142	139	132	132	0	0	0	0	0	0	0	0	0	0	0	0	0	0	0	0	0	0	0	0	0	0	0	132	0	0	0	0	0	0	0	0	0	0	0	0	0	0	0	0	0	0	160	158	158	158	159	158	158	157	157	156	153	146	0	0	0	0	0	0	579	569	0	0	0	0	0	0	0	0	0	0	0	0	0	0	0	0	0	0	0	0	0	0	0	0	0	0	0	0	0	0	0	0	0	0	543	541	538	536	537	538	539	539	539	539	539	542	541	542	540	540	541	542	541	542	542	541	540	541	544	547	545	544	543	543	542	541	541	541	541	542	543	544	543	544	544	543	544	545	545	544	544	545	544	544	545	546	546	545	546	544	545	545	546	546	548	548	547	546	547	546	547	547	548	547	550	549	548	548	549	548	549	551	550	552	550	550	550	551	551	552	552	550	549	549	548	550	550	551	551	552	552	552	553	552	551	550	550	550	550	550	552	552	553	554	554	553	553	552	552	553	553	553	553	552	552	553	554	555	554	553	552	552	551	552	551	552	552	553	552	552	552	553	553	553	554	555	555	556	556	556	557	557	556	557	558	557	557	557	557	556	556	556	555	556	556	557	557	557	556	556	556	556	555	556	556	558	557	557	558	558	557	559	560	559	559	558	557	555	555	555	555	554	555	556	558	559	559	560	559	558	557	559	559	558	557	556	555	555	555	556	556	555	555	555	556	557	558	558	557	557	557	558	559	560	559	558	560	559	559	558	559	558	558	556	556	555	556	557	559	558	558	557	557	557	558	559	558	559	558	559	559	558	557	559	557	557	558	558	558	559	560	559	559	559	557	555	556	557	557	560	560	561	559	559	558	560	559	559	559	560	560	560	561	561	558	559	557	557	555	556	555	556	555	555	556	556	556	557	557	556	556	557	559	558	557	557	556	556	556	557	557	557	558	558	557	557	557	556	556	558	556	556	556	556	556	556	556	556	557	557	558	556	557	556	557	555	556	556	554	555	554	555	554	556	555	555	555	555	556	555	555	555	554	554	554	554	554	554	555	555	555	554	554	553	554	555	554	554	554	553	553	553	554	551	552	554	554	553	554	555	554	555	555	553	554	553	556	556	557	555	552	551	551	551	552	554	553	553	553	551	550	549	550	550	551	552	552	552	552	553	552	556	554	555	554	553	552	551	551	553	552	551	551	552	553	554	552	552	552	552	552	553	554	556	552	548	551	545	551	549	550	548	547	548	549	550	550	550	546	547	547	547	546	543	544	541	546	548	548	548	547	547	544	543	543	546	545	545	546	544	545	543	542	545	545	547	547	545	542	539	540	537	540	539	541	540	540	539	543	542	542	543	543	540	541	538	538	537	538	539	538	537	535	536	535	534	533	533	533	530	535	536	533	532	528	529	523	523	521	521	519	519	519	525	0	0	0	0	507	0	0	0	483	0	0	0	0	0	0	0	0	0	0	0	0	0	0	0	0	0	0	0	0	0	0	0	0	0	0	513	500	499	501	495	501	498	0	0	0	507	0	478	488	0	0	479	0	0	0	0	0	0	0	0	0	0	0	0	0	0	0	0	0	0	0	0	0	0	0	0	0	0	0	0	0	0	0	0	0	0	0	0	0	0	0	0	0	0	0	0	0	0	0	0	0	0	0	0	0	0	0	0	0	0	0	0	0	0	0	0	0	0	0	0	0	0	0	0	0	0	0
0	0	0	0	0	0	0	0	0	0	0	0	0	0	0	0	0	0	0	0	0	0	0	0	0	0	0	0	0	0	0	0	0	0	0	0	0	0	0	0	0	0	0	0	0	0	0	0	0	0	0	0	0	0	0	0	0	0	0	0	0	0	0	0	0	0	0	0	0	0	0	0	0	0	0	0	0	0	0	0	0	0	0	0	0	0	0	0	0	0	0	0	0	0	0	0	0	0	0	0	0	0	0	0	0	0	0	0	0	0	0	0	0	0	0	0	0	0	0	0	0	0	0	0	0	0	0	0	0	0	397	395	399	399	0	392	0	420	0	413	420	0	0	0	0	0	0	0	0	0	0	0	0	0	0	0	0	0	0	472	0	475	472	480	486	491	490	0	495	495	499	0	0	0	0	0	0	0	0	0	0	0	0	0	0	0	0	0	0	0	0	123	126	128	128	129	129	130	133	135	135	136	137	138	138	140	141	141	141	141	141	140	140	141	142	142	142	141	140	139	131	131	0	0	0	0	0	0	0	0	0	0	0	0	0	0	0	0	0	0	0	0	0	0	0	0	135	0	0	0	0	0	0	0	0	0	0	0	0	0	0	0	0	0	0	160	160	158	158	158	157	157	156	156	153	150	144	0	0	0	0	0	583	578	565	571	0	0	0	0	0	0	0	0	0	0	0	0	0	0	0	0	0	0	0	0	0	0	0	0	0	0	0	0	0	0	0	0	544	0	537	537	535	535	537	538	537	538	538	539	538	540	541	540	539	540	540	540	541	539	540	540	541	541	544	542	541	542	544	545	541	539	540	539	540	540	541	542	542	543	542	543	543	543	542	543	544	544	545	545	546	546	545	545	543	544	543	544	545	548	547	547	546	547	546	547	547	548	548	549	549	547	547	548	548	549	551	550	551	549	549	548	551	551	553	553	551	550	548	548	548	548	549	550	550	550	551	552	551	551	551	551	549	549	549	550	551	552	553	554	553	551	551	551	552	552	553	553	552	553	553	554	554	554	552	551	551	550	552	551	552	551	553	552	555	555	556	556	555	554	554	554	553	554	554	555	556	557	557	558	557	556	556	555	555	555	556	556	556	557	557	557	556	556	554	553	553	553	553	553	555	556	555	556	557	556	558	559	559	559	559	557	555	555	554	554	553	553	553	555	557	557	558	557	556	555	557	558	557	556	555	554	554	555	555	555	555	555	554	555	557	557	557	556	557	557	556	557	558	558	558	558	557	557	557	557	557	557	555	554	554	554	557	558	558	558	558	557	557	557	557	556	557	555	558	558	558	556	556	555	555	555	557	557	559	560	559	558	558	555	554	554	555	556	558	559	560	558	558	557	558	557	558	558	559	560	561	562	562	559	558	556	555	554	555	554	556	556	554	554	555	555	555	555	555	556	557	557	557	556	554	554	554	554	557	557	557	558	558	557	557	557	557	558	557	556	557	557	556	557	558	558	557	559	559	561	559	559	557	556	555	556	556	554	555	555	557	556	557	558	556	556	555	554	552	553	553	554	554	553	554	554	554	555	555	554	554	554	552	553	552	552	551	552	552	552	552	552	550	551	552	552	553	555	553	554	553	553	551	552	552	555	556	557	556	554	554	554	553	553	553	552	553	552	552	551	548	549	550	550	551	552	552	551	553	551	552	550	553	552	553	551	551	548	552	547	552	550	551	551	551	551	550	550	550	552	554	555	553	554	548	547	547	547	547	549	548	548	549	548	546	546	545	546	543	545	543	543	545	543	547	547	548	549	550	545	547	547	546	546	547	544	548	547	543	544	542	542	543	543	544	544	543	542	540	540	538	538	538	539	537	540	538	541	539	543	542	542	542	539	539	537	536	537	536	536	536	535	534	534	533	532	531	531	532	529	531	527	528	531	530	528	523	519	519	515	519	517	505	509	0	0	0	0	511	495	0	0	0	0	0	0	0	0	0	0	0	0	0	0	0	0	0	0	0	0	520	0	515	0	0	495	0	0	501	505	493	492	497	488	486	492	491	0	496	491	0	0	0	0	0	0	0	0	0	0	0	0	0	0	0	0	0	0	0	0	0	0	0	0	0	0	0	0	0	0	0	0	0	0	0	0	0	0	0	0	0	0	0	0	0	0	0	0	0	0	0	0	0	0	0	0	0	0	0	0	0	0	0	0	0	0	0	0	0	0	0	0	0	0	0	0	0	0	0	0
0	0	0	0	0	0	0	0	0	0	0	0	0	0	0	0	0	0	0	0	0	0	0	0	0	0	0	0	0	0	0	0	0	0	0	0	0	0	0	0	0	0	0	0	0	0	0	0	0	0	0	0	0	0	0	0	0	0	0	0	0	0	0	0	0	0	0	0	0	0	0	0	0	0	0	0	0	0	0	0	0	0	0	0	0	0	0	0	0	0	0	0	0	0	0	0	0	0	0	0	0	0	0	0	0	0	0	0	0	0	0	0	0	0	0	0	0	0	0	0	0	0	0	0	0	0	0	0	0	0	0	0	405	0	408	400	413	0	410	417	409	0	0	0	0	0	0	0	0	0	0	0	0	0	0	0	0	0	0	475	478	0	0	482	486	493	500	494	491	498	0	0	0	0	0	0	0	0	114	0	0	0	0	0	0	0	0	0	0	0	0	125	126	127	127	128	129	130	134	136	135	136	137	138	139	140	141	140	140	140	140	139	140	140	141	142	142	141	139	135	134	0	0	0	0	0	0	0	0	0	0	0	0	0	0	0	0	0	0	0	0	0	0	0	0	137	135	0	0	0	0	0	0	0	0	0	0	0	0	0	0	0	0	161	162	160	159	157	156	157	155	155	155	154	152	150	0	0	0	0	0	583	0	568	0	0	0	0	0	0	0	0	0	0	0	0	0	0	0	0	0	0	0	0	0	0	0	0	0	0	0	0	0	0	0	0	0	0	538	531	536	534	533	534	535	536	535	535	535	537	537	538	539	539	537	538	540	540	540	540	539	540	540	541	540	541	538	541	542	543	545	541	539	537	537	538	539	540	540	541	540	541	541	542	542	542	543	542	543	544	543	543	543	543	541	542	541	543	545	546	546	546	545	545	544	546	546	547	546	547	546	548	546	545	546	548	549	549	550	549	549	549	550	550	550	550	549	547	546	547	547	547	548	549	550	551	551	552	551	551	550	550	548	548	550	550	551	553	552	553	551	549	550	550	551	552	553	552	552	551	552	551	552	551	550	551	552	551	552	551	551	550	552	553	555	555	555	554	554	553	553	553	554	554	554	554	555	556	556	556	556	555	553	553	553	554	554	556	557	557	557	557	556	555	553	552	552	552	551	553	554	555	554	555	556	556	556	557	558	558	557	556	555	555	554	554	553	553	553	555	557	557	557	556	555	553	554	555	554	553	553	552	552	554	555	554	554	554	554	555	557	557	556	555	555	555	555	555	556	555	556	556	556	557	557	556	557	557	556	555	554	554	556	557	557	557	556	556	557	557	557	557	556	556	558	558	557	556	556	554	554	555	555	556	557	558	558	557	556	554	553	554	555	557	558	559	558	558	558	557	558	557	558	557	558	559	559	559	560	558	558	557	556	556	556	555	555	555	553	552	554	554	554	555	556	555	557	557	557	554	553	551	552	552	555	555	556	557	558	556	556	554	556	555	554	554	555	556	556	558	557	556	556	556	558	560	559	559	558	557	555	554	554	553	554	556	556	555	556	555	553	553	553	553	554	555	556	555	555	553	554	552	552	552	553	553	553	553	553	553	553	549	550	550	551	550	550	550	548	549	550	552	551	552	551	552	551	551	550	550	550	554	556	557	556	556	555	554	554	552	551	551	551	551	552	551	551	550	550	551	549	551	549	550	550	550	548	547	549	549	551	549	551	549	550	546	552	550	548	548	548	547	548	547	550	549	551	554	553	551	549	549	546	549	547	547	547	549	549	548	547	547	543	545	545	544	542	542	541	538	542	543	546	545	545	543	545	542	545	543	545	545	545	546	546	544	543	542	544	545	543	541	541	540	535	536	535	537	535	539	536	537	539	540	539	540	541	540	540	535	536	535	535	534	535	533	533	533	532	531	531	530	528	528	528	527	530	526	528	527	526	521	524	518	516	515	514	517	0	0	0	0	501	0	500	0	0	0	0	0	0	0	0	0	0	0	0	0	0	0	0	0	0	0	0	0	0	504	0	0	0	0	0	0	503	492	0	496	486	490	493	483	0	0	489	470	0	468	0	0	0	0	0	0	0	0	0	0	0	0	0	0	0	0	0	0	0	0	0	0	0	0	0	0	0	0	0	0	0	0	0	0	0	0	0	0	0	0	0	0	0	0	0	0	0	0	0	0	0	0	0	0	0	0	0	0	0	0	0	0	0	0	0	0	0	0	0	0	0	0	0	0	0	0	0	0
0	0	0	0	0	0	0	0	0	0	0	0	0	0	0	0	0	0	0	0	0	0	0	0	0	0	0	0	0	0	0	0	0	0	0	0	0	0	0	0	0	0	0	0	0	0	0	0	0	0	0	0	0	0	0	0	0	0	0	0	0	0	0	0	0	0	0	0	0	0	0	0	0	0	0	0	0	0	0	0	0	0	0	0	0	0	0	0	0	0	0	0	0	0	0	0	0	0	0	0	0	0	0	0	0	0	0	0	0	0	0	0	0	0	0	0	0	0	0	0	0	0	0	0	0	0	0	0	0	0	0	0	401	404	0	0	0	0	411	0	0	0	0	0	0	0	0	0	0	0	0	0	0	0	0	0	0	0	0	480	0	0	475	485	0	489	491	0	0	0	0	0	0	0	0	0	0	0	0	0	0	0	0	0	0	0	0	0	0	0	124	125	126	127	128	129	131	135	136	137	138	137	137	138	139	139	140	139	138	139	139	139	140	141	141	142	142	141	136	130	122	0	0	0	0	0	0	0	0	0	0	0	0	0	0	0	0	0	0	0	0	0	0	0	133	0	0	0	0	0	0	0	0	0	0	0	0	0	0	0	0	0	0	160	162	160	159	157	157	157	156	155	154	153	150	144	0	0	0	0	0	575	575	559	559	561	0	0	0	0	0	0	0	0	0	0	0	0	0	0	0	0	0	0	0	0	0	0	0	0	0	0	0	0	0	0	0	551	538	536	535	535	535	534	535	535	535	536	535	537	537	538	537	538	537	537	537	538	537	539	539	540	539	541	540	539	537	537	542	544	547	544	540	536	538	537	537	539	540	540	539	541	541	542	542	542	543	541	542	543	543	543	543	543	542	543	541	543	545	547	546	546	545	545	545	546	545	544	544	545	546	545	545	545	546	548	549	548	549	548	547	547	548	549	548	548	548	547	545	547	547	547	547	549	549	549	548	549	549	549	549	550	549	549	550	550	552	552	553	552	551	550	550	550	550	552	553	552	550	552	551	552	551	552	550	551	550	551	552	551	551	551	552	552	553	555	556	556	553	553	552	552	552	553	553	553	554	554	555	556	555	555	554	552	552	552	553	554	556	555	555	555	555	554	553	552	551	551	552	553	553	554	554	555	555	554	555	555	555	555	555	555	554	555	555	555	553	553	552	554	555	555	555	555	553	552	552	553	552	551	551	551	552	554	555	554	554	554	554	554	556	555	555	554	554	554	555	555	556	556	557	556	555	556	556	555	556	556	556	555	555	555	556	557	557	557	557	555	555	555	554	554	556	556	558	559	558	556	556	555	554	554	555	556	556	557	558	555	555	553	552	553	556	557	559	559	558	557	557	557	558	557	557	556	557	557	557	557	557	558	556	557	556	556	557	556	556	555	554	552	553	553	554	555	555	555	556	556	555	553	554	552	553	553	555	556	556	557	557	555	556	556	556	555	555	554	554	556	556	557	556	555	555	554	556	558	558	557	557	556	554	554	554	552	554	554	554	554	555	554	553	553	552	554	552	554	555	555	554	552	553	553	552	551	550	551	551	553	552	552	551	548	547	547	548	547	548	548	547	548	549	551	550	552	550	551	549	550	550	550	550	554	554	555	555	554	553	554	553	552	551	551	553	552	553	552	550	549	548	549	548	548	549	549	550	548	548	545	546	547	550	548	549	545	548	546	547	545	544	544	547	544	545	546	549	549	549	552	551	550	548	547	544	545	544	545	546	547	547	545	544	544	541	541	540	541	541	540	541	541	543	541	547	542	546	544	545	544	548	545	545	543	543	541	540	538	538	539	539	542	540	540	540	539	537	538	537	537	536	537	537	533	534	539	541	541	538	537	537	537	535	534	534	533	532	532	532	531	530	530	528	527	528	527	527	525	528	527	527	523	528	523	520	516	513	518	516	0	0	0	499	0	502	508	0	0	0	508	0	0	0	0	0	0	0	0	0	0	0	0	0	0	0	0	0	487	0	491	0	0	0	487	0	490	501	497	495	0	487	0	486	492	488	489	0	0	476	0	0	0	0	0	0	0	0	0	0	0	0	0	0	0	0	0	0	0	0	0	0	0	0	0	0	0	0	0	0	0	0	0	0	0	0	0	0	0	0	0	0	0	0	0	0	0	0	0	0	0	0	0	0	0	0	0	0	0	0	0	0	0	0	0	0	0	0	0	0	0	0	0	0	0	0	0	0	0
0	0	0	0	0	0	0	0	0	0	0	0	0	0	0	0	0	0	0	0	0	0	0	0	0	0	0	0	0	0	0	0	0	0	0	0	0	0	0	0	0	0	0	0	0	0	0	0	0	0	0	0	0	0	0	0	0	0	0	0	0	0	0	0	0	0	0	0	0	0	0	0	0	0	0	0	0	0	0	0	0	0	0	0	0	0	0	0	0	0	0	0	0	0	0	0	0	0	0	0	0	0	0	0	0	0	0	0	0	0	0	0	0	0	0	0	0	0	0	0	0	0	0	0	0	0	0	0	0	0	0	0	0	0	0	0	400	422	414	412	399	0	0	0	0	0	0	0	0	0	0	0	0	0	0	0	0	0	0	467	0	480	478	485	485	490	482	490	0	0	0	0	0	0	0	0	115	0	0	0	0	0	0	0	117	0	0	0	0	0	122	124	125	126	128	129	131	134	135	137	136	136	136	138	138	139	139	138	138	138	138	139	139	140	140	141	141	139	135	130	0	0	0	0	0	0	0	0	0	0	0	0	0	0	0	0	0	0	0	0	0	0	0	133	0	0	0	0	0	0	0	0	0	0	0	0	0	0	0	0	0	0	0	161	162	161	158	158	157	159	157	157	155	153	148	0	0	0	0	568	0	567	570	561	563	0	0	0	0	0	0	0	0	0	0	0	0	0	0	0	0	0	0	0	0	0	0	0	0	0	0	0	0	0	0	0	0	540	538	536	536	536	536	535	536	535	535	535	535	536	535	537	536	537	536	536	536	538	537	539	539	540	538	540	540	539	538	537	540	539	545	548	545	540	540	538	537	538	538	538	538	539	540	541	542	543	544	542	541	541	541	541	541	543	542	543	542	543	544	545	546	546	545	545	545	545	544	545	543	544	544	544	544	545	545	547	549	549	549	549	548	547	547	547	546	545	545	545	544	545	546	546	547	548	548	548	547	548	547	547	547	549	549	550	551	551	551	551	550	551	550	549	548	549	548	549	551	550	550	550	550	549	549	549	550	550	551	552	552	551	551	551	551	552	552	554	553	554	552	552	553	554	553	553	553	552	551	552	552	553	553	553	552	550	550	551	553	554	554	556	555	555	555	555	553	552	551	551	551	552	552	552	553	554	554	553	555	555	555	554	555	553	553	554	554	555	554	555	553	554	555	555	555	555	554	553	553	553	552	550	550	551	552	553	555	554	554	554	555	555	557	555	554	552	553	552	553	553	555	554	555	556	556	556	556	555	555	555	555	555	554	554	555	555	555	556	555	554	554	555	554	554	556	557	557	558	557	556	555	555	554	554	555	556	557	557	556	555	553	551	551	553	555	556	557	558	557	557	556	557	558	556	557	556	556	556	556	555	556	556	555	556	555	556	555	556	555	554	553	552	552	553	553	553	553	553	555	555	554	554	553	551	552	552	554	555	556	555	557	555	555	554	553	553	554	553	553	556	556	555	555	554	554	553	554	554	555	554	555	553	553	553	553	552	554	553	554	553	553	552	553	552	553	553	554	555	556	555	555	554	553	551	550	550	549	550	551	553	552	552	552	548	548	547	548	546	548	547	546	549	548	550	550	549	548	549	549	550	549	549	550	551	553	554	555	555	555	554	553	552	550	550	551	551	552	553	549	551	549	548	549	548	547	547	547	546	544	545	543	545	547	549	550	548	546	547	545	542	544	545	545	546	547	545	545	544	548	547	548	548	546	548	545	545	543	544	545	544	545	547	545	544	542	542	542	542	542	540	543	539	541	539	546	543	546	543	542	541	544	540	541	539	538	539	538	539	537	540	541	540	542	543	537	538	537	536	536	538	537	537	535	538	538	542	540	539	539	536	533	535	533	532	534	532	532	531	532	531	530	529	527	525	526	524	524	524	526	525	528	524	520	521	517	518	508	514	508	0	0	517	508	500	0	498	0	0	0	0	0	0	0	0	0	0	0	0	0	0	0	0	0	0	0	0	0	0	0	501	0	0	0	0	0	486	499	486	494	492	0	484	485	487	482	0	0	0	0	0	0	0	0	0	0	0	0	0	0	0	0	0	0	0	0	0	0	0	0	0	0	0	0	0	0	0	0	0	0	0	0	0	0	0	0	0	0	0	0	0	0	0	0	0	0	0	0	0	0	0	0	0	0	0	0	0	0	0	0	0	0	0	0	0	0	0	0	0	0	0	0	0	0	0	0	0	0	0
0	0	0	0	0	0	0	0	0	0	0	0	0	0	0	0	0	0	0	0	0	0	0	0	0	0	0	0	0	0	0	0	0	0	0	0	0	0	0	0	0	0	0	0	0	0	0	0	0	0	0	0	0	0	0	0	0	0	0	0	0	0	0	0	0	0	0	0	0	0	0	0	0	0	0	0	0	0	0	0	0	0	0	0	0	0	0	0	0	0	0	0	0	0	0	0	0	0	0	0	0	0	0	0	0	0	0	0	0	0	0	0	0	0	0	0	0	0	0	0	0	0	0	0	0	0	0	0	0	0	0	0	0	0	0	0	0	409	413	413	408	0	0	0	0	0	0	0	0	0	0	0	0	0	0	0	0	0	477	0	0	0	463	0	482	0	0	0	0	0	0	0	0	0	0	109	0	0	0	0	0	0	0	0	0	0	0	0	0	119	123	125	126	126	128	129	131	134	136	136	136	136	137	137	137	138	138	138	138	138	138	139	139	139	140	140	138	135	129	116	0	0	0	0	0	0	0	0	0	0	0	0	0	0	0	0	0	0	0	0	0	0	128	0	0	0	0	0	0	0	0	0	0	0	0	0	0	0	0	0	0	0	159	160	159	159	156	157	156	156	155	157	154	149	0	0	0	0	0	0	571	0	574	559	555	548	0	0	0	0	0	0	0	0	0	0	0	0	0	0	0	0	0	0	0	0	0	0	0	0	0	0	0	0	0	0	0	538	536	535	536	536	535	535	535	533	534	535	537	537	537	537	538	537	536	535	534	535	534	537	536	538	537	538	538	538	537	537	539	540	542	540	542	541	540	539	539	538	538	538	538	539	540	541	541	542	543	541	539	541	540	541	541	543	541	543	542	543	543	544	543	543	544	544	545	545	543	543	543	543	544	545	545	545	546	547	547	548	548	548	547	545	545	544	544	545	546	546	544	545	547	548	548	549	548	547	546	546	545	546	547	548	548	548	548	549	549	548	549	549	550	549	549	548	547	549	549	549	548	549	548	548	547	548	548	550	550	550	550	550	550	550	550	552	552	552	553	554	552	552	552	552	551	551	551	551	550	550	551	552	552	551	552	551	550	551	552	552	553	554	554	553	554	554	552	552	551	550	551	551	552	553	552	552	553	553	553	554	555	553	553	552	553	554	553	555	555	554	553	554	554	554	554	555	555	553	554	554	553	551	551	552	552	553	554	553	554	553	554	554	556	554	555	553	554	553	553	554	554	554	554	555	554	556	555	554	554	555	554	555	555	555	555	554	555	555	555	555	554	553	552	553	554	555	556	557	555	555	554	554	554	555	555	555	556	556	557	554	554	553	553	553	553	556	555	555	555	555	554	556	556	555	556	555	555	554	553	553	553	554	552	555	554	555	554	555	554	554	552	552	552	553	553	553	553	554	554	554	555	554	553	553	553	553	555	556	557	556	556	555	554	554	554	553	553	553	554	555	554	555	555	554	554	553	554	554	555	553	554	553	553	553	554	553	552	551	553	552	553	552	552	550	551	551	552	554	555	555	554	552	552	550	549	550	548	549	549	552	552	552	551	547	548	547	548	546	547	548	546	547	547	549	548	548	547	548	549	549	550	549	550	552	552	553	553	554	552	551	551	550	547	549	549	550	552	553	550	549	548	547	547	547	547	545	545	545	544	544	543	549	547	549	549	546	546	544	543	541	542	542	544	545	546	544	543	542	544	544	544	546	544	546	545	544	544	544	544	545	544	546	543	544	541	539	540	540	539	541	544	540	542	540	542	540	543	540	543	546	545	542	541	538	535	537	535	535	534	534	535	538	536	538	539	540	537	540	540	542	539	540	535	537	537	540	537	536	532	534	531	532	532	533	531	530	530	530	530	530	530	528	526	526	525	524	526	525	527	524	527	526	525	517	517	517	515	513	0	0	524	0	507	501	505	501	0	0	0	0	0	0	0	0	0	0	0	0	0	0	0	0	0	0	0	0	0	0	0	496	0	0	0	488	0	501	500	493	494	491	482	479	0	0	488	0	0	0	0	0	0	0	0	0	0	0	0	0	0	0	0	0	0	0	0	0	0	0	0	0	0	0	0	0	0	0	0	0	0	0	0	0	0	0	0	0	0	0	0	0	0	0	0	0	0	0	0	0	0	0	0	0	0	0	0	0	0	0	0	0	0	0	0	0	0	0	0	0	0	0	0	0	0	0	0	0	0	0
0	0	0	0	0	0	0	0	0	0	0	0	0	0	0	0	0	0	0	0	0	0	0	0	0	0	0	0	0	0	0	0	0	0	0	0	0	0	0	0	0	0	0	0	0	0	0	0	0	0	0	0	0	0	0	0	0	0	0	0	0	0	0	0	0	0	0	0	0	0	0	0	0	0	0	0	0	0	0	0	0	0	0	0	0	0	0	0	0	0	0	0	0	0	0	0	0	0	0	0	0	0	0	0	0	0	0	0	0	0	0	0	0	0	0	0	0	0	0	0	0	0	0	0	0	0	0	0	0	0	0	0	0	0	0	0	414	424	420	0	407	397	407	411	401	0	0	0	0	0	0	0	0	0	0	0	0	0	490	469	486	464	479	0	0	0	0	0	0	0	0	0	0	0	0	0	106	0	0	0	0	0	0	0	113	111	114	118	115	120	122	123	126	126	129	129	131	132	133	134	135	136	136	137	137	138	137	137	137	137	137	139	138	139	138	138	136	134	125	0	0	0	0	0	0	0	0	0	0	0	0	0	0	0	0	0	0	0	0	0	0	126	128	0	0	0	0	0	0	0	0	0	0	0	0	0	0	0	0	0	0	152	159	158	158	157	155	156	155	157	156	155	152	148	0	0	0	0	0	572	573	570	570	545	554	0	0	0	0	0	0	0	0	0	0	0	0	0	0	0	0	0	0	0	0	0	0	0	0	0	0	0	0	0	0	0	0	530	534	533	535	535	536	535	536	534	535	535	536	536	536	536	535	535	533	534	533	534	534	536	536	537	537	538	538	539	538	539	538	536	538	540	542	544	544	541	541	539	538	537	539	540	540	541	542	542	541	540	539	540	539	541	541	543	542	544	542	542	542	541	541	542	542	543	543	543	543	543	543	543	544	544	545	545	546	547	548	548	548	548	547	543	543	542	542	542	545	545	544	545	547	547	547	548	547	546	544	545	545	544	544	546	546	548	548	548	548	548	548	548	549	548	548	548	547	548	548	548	548	547	547	546	547	547	549	550	551	550	550	550	550	549	549	550	549	549	549	550	549	550	550	551	551	551	551	551	549	550	550	551	550	551	551	550	550	551	551	551	551	552	551	552	553	552	553	553	552	551	553	552	553	554	555	553	554	553	553	553	553	553	552	551	552	552	552	554	554	554	552	553	553	554	554	555	555	554	554	553	554	552	552	552	553	552	553	552	553	552	553	553	556	555	554	553	553	552	553	554	553	554	554	555	554	556	554	554	554	555	555	556	555	555	554	554	554	555	556	555	554	553	552	552	553	554	555	556	556	556	555	555	555	555	556	555	555	555	555	553	554	553	554	554	555	555	554	554	554	555	553	555	555	554	555	555	554	552	552	550	551	552	552	554	553	555	553	554	553	554	553	553	554	554	554	553	553	553	553	554	554	553	551	550	550	551	553	555	556	555	554	554	553	552	552	552	552	552	553	553	553	552	550	551	551	550	552	553	554	552	553	553	553	552	552	551	551	550	551	551	552	551	551	548	549	550	550	551	554	554	553	552	551	550	548	549	548	549	549	550	550	550	550	548	548	548	549	547	548	548	547	548	547	546	545	546	546	548	549	549	551	549	549	551	550	552	553	553	551	551	549	547	545	546	549	548	547	550	548	548	548	549	547	547	545	543	542	542	543	543	545	546	547	550	547	547	545	544	541	543	543	544	546	547	545	543	543	541	541	543	544	546	546	546	545	544	544	544	542	541	542	545	544	545	543	541	541	541	541	543	542	540	542	540	540	539	540	541	543	541	541	542	538	539	536	536	537	537	535	538	535	536	535	536	538	538	535	535	537	540	537	540	537	540	537	538	541	539	529	533	531	533	532	533	530	530	529	531	530	530	530	529	528	525	525	525	524	524	526	526	527	521	526	519	513	511	511	517	0	520	0	0	0	503	512	0	0	0	0	0	0	0	0	0	0	0	0	0	0	0	0	0	0	0	0	0	0	0	0	501	499	0	0	493	0	499	499	497	491	478	0	0	482	0	486	492	0	0	0	0	0	0	0	0	0	0	0	0	0	0	0	0	0	0	0	0	0	0	0	0	0	0	0	0	0	0	0	0	0	0	0	0	0	0	0	0	0	0	0	0	0	0	0	0	0	0	0	0	0	0	0	0	0	0	0	0	0	0	0	0	0	0	0	0	0	0	0	0	0	0	0	0	0	0	0	0	0	0
0	0	0	0	0	0	0	0	0	0	0	0	0	0	0	0	0	0	0	0	0	0	0	0	0	0	0	0	0	0	0	0	0	0	0	0	0	0	0	0	0	0	0	0	0	0	0	0	0	0	0	0	0	0	0	0	0	0	0	0	0	0	0	0	0	0	0	0	0	0	0	0	0	0	0	0	0	0	0	0	0	0	0	0	0	0	0	0	0	0	0	0	0	0	0	0	0	0	0	0	0	0	0	0	0	0	0	0	0	0	0	0	0	0	0	0	0	0	0	0	0	0	0	0	0	0	0	0	0	0	0	0	0	0	0	0	415	0	0	411	419	0	399	408	0	0	0	0	0	0	0	0	0	0	0	0	0	0	459	0	460	473	0	0	0	0	0	0	0	0	0	0	0	0	0	0	114	114	0	0	0	0	0	0	0	116	117	121	121	122	125	125	128	128	131	130	131	132	133	133	134	135	135	136	136	136	136	137	137	137	138	139	138	138	137	135	132	125	0	0	0	0	0	0	0	0	0	0	0	0	0	117	0	0	0	0	0	0	0	0	0	128	126	0	0	0	0	0	0	0	0	0	0	0	0	0	0	0	0	0	0	157	156	156	156	156	153	154	154	155	153	150	148	0	0	0	0	0	0	0	0	568	570	0	0	0	0	0	0	0	0	0	0	0	0	0	0	0	0	0	0	0	0	0	0	0	0	0	0	0	0	0	0	0	0	0	536	530	531	531	534	534	533	533	534	533	535	536	538	538	539	538	537	536	536	536	534	533	534	535	536	538	536	538	536	538	537	538	536	535	535	537	538	539	544	542	538	536	537	536	538	539	540	540	541	542	540	540	539	541	540	541	542	544	543	543	542	542	541	541	540	540	541	542	542	543	542	542	541	541	542	543	543	545	545	546	547	548	548	548	547	543	542	541	542	541	544	545	544	545	547	548	547	548	548	546	544	544	544	544	544	546	546	546	546	546	546	546	546	547	547	547	547	547	547	547	546	547	547	547	547	548	549	548	548	549	548	547	548	549	548	548	549	550	549	549	549	549	548	548	550	551	550	551	552	552	550	551	552	550	551	551	552	551	551	551	551	550	551	550	550	551	552	552	553	553	553	551	552	551	552	553	553	552	553	552	552	551	552	552	551	550	551	552	552	553	553	553	552	552	552	552	553	553	553	553	553	553	554	554	553	552	552	551	551	550	550	551	552	552	554	553	553	551	553	552	552	553	554	554	554	556	554	554	553	553	552	553	553	555	554	553	554	553	554	555	556	555	554	552	550	550	552	552	554	554	554	554	553	555	555	555	555	555	555	553	553	552	554	552	553	553	554	553	553	553	552	553	552	553	554	553	554	554	552	550	549	548	548	550	550	553	552	554	552	554	554	554	553	554	554	553	553	553	552	551	553	553	553	552	550	550	550	553	554	555	555	555	554	553	553	555	553	554	553	553	552	553	552	550	550	549	549	550	551	551	552	551	551	551	552	551	551	551	549	548	549	550	549	550	550	548	549	551	551	551	552	551	550	550	549	549	548	549	548	548	547	549	549	549	549	547	547	547	548	547	549	546	546	547	545	545	545	546	547	548	549	549	549	548	548	550	550	551	551	551	550	549	547	546	545	547	546	547	549	550	549	548	548	548	547	547	546	543	543	541	543	545	547	548	547	547	545	543	541	543	543	543	542	544	543	544	543	543	542	540	540	542	545	545	543	544	544	543	542	539	540	540	541	540	542	544	540	541	539	542	540	541	543	543	540	540	540	537	536	535	538	539	542	541	540	540	535	536	537	535	536	534	532	532	534	535	535	536	537	537	537	539	538	539	538	539	536	541	535	537	530	530	531	533	531	531	529	529	528	527	528	527	527	526	527	526	527	526	524	527	527	522	523	524	518	516	516	512	518	502	0	0	0	0	0	0	502	508	518	0	0	0	0	0	0	0	0	0	0	0	0	0	0	0	0	0	0	0	0	0	511	495	0	0	0	0	0	498	493	494	491	0	0	0	0	0	0	0	0	0	0	0	0	0	0	0	0	0	0	0	0	0	0	0	0	0	0	0	0	0	0	0	0	0	0	0	0	0	0	0	0	0	0	0	0	0	0	0	0	0	0	0	0	0	0	0	0	0	0	0	0	0	0	0	0	0	0	0	0	0	0	0	0	0	0	0	0	0	0	0	0	0	0	0	0	0	0	0	0	0
0	0	0	0	0	0	0	0	0	0	0	0	0	0	0	0	0	0	0	0	0	0	0	0	0	0	0	0	0	0	0	0	0	0	0	0	0	0	0	0	0	0	0	0	0	0	0	0	0	0	0	0	0	0	0	0	0	0	0	0	0	0	0	0	0	0	0	0	0	0	0	0	0	0	0	0	0	0	0	0	0	0	0	0	0	0	0	0	0	0	0	0	0	0	0	0	0	0	0	0	0	0	0	0	0	0	0	0	0	0	0	0	0	0	0	0	0	0	0	0	0	0	0	0	0	0	0	0	0	0	0	0	0	0	0	0	419	0	415	420	389	395	408	395	416	0	0	0	0	0	0	0	0	0	0	0	0	0	0	0	0	0	0	0	468	0	0	0	0	0	0	0	0	0	113	0	0	0	0	0	0	0	0	0	113	115	117	120	121	122	124	125	128	128	131	130	131	131	132	132	134	134	134	135	136	136	136	137	137	137	137	138	137	137	136	134	131	0	0	0	0	0	0	0	0	0	0	0	0	0	0	0	0	0	0	0	0	0	0	127	128	131	0	0	0	0	0	0	0	0	0	0	0	0	0	0	0	0	0	0	0	154	154	155	155	154	153	153	154	153	151	148	146	0	0	0	0	0	0	561	0	567	0	0	0	0	0	0	0	0	0	0	0	0	0	0	0	0	0	0	0	0	0	0	0	0	0	0	0	0	0	0	0	0	0	534	531	532	531	530	533	533	533	533	533	532	533	535	536	536	535	536	535	535	534	534	534	534	533	535	537	537	537	537	536	537	536	538	536	535	536	536	538	540	542	540	538	535	539	539	540	539	540	539	539	540	540	540	540	541	540	541	540	542	541	542	542	541	540	541	539	539	540	541	541	542	542	543	542	541	542	543	544	543	545	546	547	547	548	547	546	544	543	542	543	543	544	545	545	545	546	547	546	548	547	546	545	544	542	542	543	544	545	546	545	545	544	543	545	545	546	545	545	544	546	545	545	546	546	546	546	547	547	546	547	547	548	547	547	547	548	548	549	550	550	549	548	548	548	547	548	550	550	550	551	551	550	551	551	550	550	550	550	550	550	550	550	549	550	550	550	550	551	552	552	552	551	550	550	549	552	552	553	551	552	552	552	551	552	551	551	550	551	550	551	551	552	551	550	550	551	551	553	553	553	553	554	553	553	553	552	551	550	549	549	549	549	550	551	551	552	551	552	551	552	551	551	553	553	552	552	554	553	553	553	553	552	552	552	553	553	552	552	553	554	554	556	555	555	553	552	551	552	552	552	552	553	554	554	553	554	555	555	554	554	552	552	551	552	551	553	552	552	551	551	549	549	550	550	550	551	551	552	552	552	551	550	549	550	550	551	554	553	553	552	553	553	553	553	553	553	552	552	551	550	552	551	552	551	550	549	549	549	550	551	551	552	551	551	551	551	552	552	551	552	551	552	551	550	549	549	548	548	549	551	551	551	552	551	551	550	551	550	550	548	549	549	549	547	549	548	547	548	551	550	550	551	550	547	548	548	549	547	549	550	548	548	548	548	548	549	548	548	550	549	548	549	548	547	546	546	545	545	545	548	549	549	549	548	547	547	547	547	549	550	551	549	547	545	544	543	542	543	544	544	546	547	548	548	549	546	546	545	542	542	540	543	542	545	547	545	545	544	544	542	545	541	543	544	544	545	545	544	543	542	540	538	540	542	543	543	544	542	540	543	540	541	540	541	538	542	542	539	539	539	539	538	540	540	538	539	541	539	537	540	537	537	538	539	540	540	542	539	541	540	535	537	534	533	535	534	535	535	536	532	532	534	535	535	536	535	537	536	539	531	535	534	533	532	533	529	529	526	526	526	526	527	528	528	527	527	527	525	524	523	525	523	526	525	519	518	516	516	513	512	505	0	0	498	501	514	502	0	0	0	0	0	0	0	0	0	0	0	0	0	0	0	0	0	0	0	0	0	0	0	0	500	0	0	0	0	0	0	489	500	0	483	0	0	0	0	0	0	0	0	0	0	0	0	0	0	0	0	0	0	0	0	0	0	0	0	0	0	0	0	0	0	0	0	0	0	0	0	0	0	0	0	0	0	0	0	0	0	0	0	0	0	0	0	0	0	0	0	0	0	0	0	0	0	0	0	0	0	0	0	0	0	0	0	0	0	0	0	0	0	0	0	0	0	0	0	0	0	0	0	0
0	0	0	0	0	0	0	0	0	0	0	0	0	0	0	0	0	0	0	0	0	0	0	0	0	0	0	0	0	0	0	0	0	0	0	0	0	0	0	0	0	0	0	0	0	0	0	0	0	0	0	0	0	0	0	0	0	0	0	0	0	0	0	0	0	0	0	0	0	0	0	0	0	0	0	0	0	0	0	0	0	0	0	0	0	0	0	0	0	0	0	0	0	0	0	0	0	0	0	0	0	0	0	0	0	0	0	0	0	0	0	0	0	0	0	0	0	0	0	0	0	0	0	0	0	0	0	0	0	0	0	0	0	0	0	0	0	0	412	416	0	409	406	393	0	0	0	0	0	0	0	0	0	0	0	0	0	0	0	0	0	0	0	0	0	0	0	0	0	0	0	0	0	0	109	112	0	0	0	0	0	0	0	0	114	116	118	120	122	123	126	127	131	131	132	131	132	131	132	133	133	134	135	135	135	135	135	136	136	136	136	137	136	135	134	131	128	125	0	0	0	0	0	0	0	0	0	0	0	0	0	0	0	0	0	0	0	0	127	129	0	0	0	0	0	0	0	0	0	0	0	0	0	0	0	0	0	0	0	0	156	153	154	154	154	153	153	153	152	150	149	146	0	0	0	0	0	0	0	0	563	571	0	0	0	0	0	0	0	0	0	0	0	0	0	0	0	0	0	0	0	0	0	0	0	0	0	0	0	0	0	0	0	0	538	532	530	529	529	529	531	531	530	531	530	530	531	534	534	536	535	534	534	534	533	534	534	533	533	534	535	535	535	534	535	535	534	536	534	534	534	535	536	538	539	537	538	536	536	538	539	538	537	536	537	537	537	539	539	540	539	539	539	539	539	540	540	541	541	541	540	539	539	540	541	541	541	542	541	541	541	543	543	543	543	544	544	545	547	545	544	541	542	541	541	541	543	544	544	545	545	545	546	546	547	546	544	543	543	542	543	544	545	545	545	543	543	543	544	544	545	544	544	545	545	545	545	545	546	546	546	548	548	548	547	547	546	545	544	545	545	546	547	549	549	549	549	547	548	548	548	550	550	549	550	551	551	551	551	549	550	550	552	551	552	551	550	548	548	548	548	548	549	550	551	551	550	550	551	549	550	551	552	551	552	551	551	549	549	549	549	548	551	551	550	550	551	550	550	549	550	550	551	551	550	551	551	552	552	552	551	550	549	548	547	549	549	549	550	551	552	550	550	550	551	551	552	553	552	552	552	553	553	554	552	553	552	552	552	553	553	552	553	553	554	554	555	554	554	552	551	550	551	550	551	551	551	551	553	554	554	555	555	553	553	552	552	550	551	551	552	552	552	552	551	549	549	549	550	549	550	550	549	549	550	550	547	548	548	549	550	553	552	552	552	552	552	552	553	552	551	551	551	550	550	550	551	551	550	550	549	549	549	549	549	549	550	550	550	551	550	551	551	552	550	549	549	549	549	548	548	547	547	548	550	551	551	551	551	550	550	551	550	550	548	547	547	546	546	546	545	546	547	549	549	551	551	550	548	548	550	549	548	549	549	548	547	549	547	548	549	548	547	548	548	549	550	549	548	546	546	545	547	548	548	549	548	547	546	546	545	546	545	548	548	548	546	545	544	543	543	543	544	543	544	547	546	546	544	545	543	543	544	544	540	540	543	542	544	546	545	544	542	542	542	543	542	543	543	543	542	543	541	541	541	540	539	540	541	542	544	540	542	539	539	540	542	539	541	542	538	538	539	538	537	536	534	541	539	537	540	539	538	537	535	535	535	534	534	536	539	540	539	542	538	536	534	532	533	532	531	533	538	535	533	530	533	535	536	536	536	536	534	534	536	535	532	534	531	530	528	527	526	525	525	525	526	525	526	527	526	525	525	524	521	522	520	521	520	520	518	517	516	513	518	0	0	0	0	0	495	493	503	0	0	0	0	0	0	0	0	0	0	0	0	0	0	0	0	0	0	0	0	0	489	478	0	0	0	498	0	0	0	500	495	0	492	0	0	476	0	0	0	0	0	492	0	0	0	0	0	0	0	0	0	0	0	0	0	0	0	0	0	0	0	0	0	0	0	0	0	0	0	0	0	0	0	0	0	0	0	0	0	0	0	0	0	0	0	0	0	0	0	0	0	0	0	0	0	0	0	0	0	0	0	0	0	0	0	0	0	0	0	0	0	0	0	0	0	0	0	0	0	0	0	0
0	0	0	0	0	0	0	0	0	0	0	0	0	0	0	0	0	0	0	0	0	0	0	0	0	0	0	0	0	0	0	0	0	0	0	0	0	0	0	0	0	0	0	0	0	0	0	0	0	0	0	0	0	0	0	0	0	0	0	0	0	0	0	0	0	0	0	0	0	0	0	0	0	0	0	0	0	0	0	0	0	0	0	0	0	0	0	0	0	0	0	0	0	0	0	0	0	0	0	0	0	0	0	0	0	0	0	0	0	0	0	0	0	0	0	0	0	0	0	0	0	0	0	0	0	0	0	0	0	0	0	0	0	0	0	0	0	0	0	404	0	0	0	417	0	0	0	0	0	0	0	0	0	0	0	0	0	0	0	0	0	0	0	0	0	0	0	0	0	0	0	0	107	0	109	108	111	0	0	0	0	0	0	112	115	116	119	120	121	123	125	127	131	131	132	132	132	132	133	133	133	134	135	135	135	135	135	136	136	135	136	136	135	134	133	131	0	0	0	0	117	0	0	0	0	0	0	0	0	0	0	0	0	0	0	0	0	0	126	0	129	0	0	0	0	0	0	0	0	0	0	0	0	0	0	0	0	0	0	153	153	153	153	153	154	152	153	152	152	150	148	0	0	0	0	0	0	0	0	560	550	0	0	0	0	0	0	0	0	0	0	0	0	0	0	0	0	0	0	0	0	0	0	0	0	0	0	0	0	0	0	0	0	0	0	536	531	530	528	530	531	531	531	530	530	529	530	531	531	533	532	533	531	531	531	533	532	532	533	532	532	533	534	534	535	535	535	536	535	535	536	536	538	537	537	535	535	536	538	539	540	540	537	536	536	536	537	537	538	538	538	539	539	539	539	538	539	540	540	540	541	540	540	540	540	541	542	542	541	541	541	542	542	542	543	544	544	544	545	544	544	542	542	541	541	541	544	544	544	544	544	544	543	545	545	545	544	543	543	543	543	544	546	544	545	543	543	542	544	544	544	543	543	543	545	545	545	545	546	546	547	548	549	549	548	547	547	545	545	545	546	546	548	550	550	549	549	547	546	547	547	549	550	550	550	550	549	549	549	547	548	549	552	551	552	551	550	548	548	548	549	548	549	549	550	551	550	549	549	548	548	549	550	549	550	549	549	548	548	548	549	548	551	551	551	550	550	548	549	548	548	550	551	550	549	549	549	549	550	551	550	549	549	548	548	549	549	550	550	551	550	550	550	549	550	551	551	551	551	551	550	551	552	552	552	552	551	551	552	552	551	551	551	551	552	552	553	553	553	552	552	551	552	550	552	552	552	551	553	553	553	552	552	552	552	551	550	550	549	549	551	552	553	552	552	551	549	550	550	550	550	549	549	548	549	549	548	549	549	549	550	550	551	551	551	551	552	552	552	551	550	549	548	549	549	549	548	549	547	548	549	550	549	548	547	546	547	547	548	548	549	549	550	549	550	549	550	549	549	548	548	545	545	545	547	548	549	549	547	548	547	548	549	550	549	546	546	545	545	545	546	546	547	549	548	549	549	549	548	547	549	547	547	547	546	546	545	546	546	546	546	547	548	548	550	549	550	549	547	546	545	545	547	547	547	549	548	547	546	546	544	544	544	546	547	548	547	545	544	544	541	541	541	541	543	544	544	543	543	544	543	542	543	542	540	541	542	542	542	543	542	541	540	542	541	542	541	541	541	541	542	543	542	541	538	539	538	540	539	540	540	539	537	540	538	541	541	539	538	536	537	534	537	535	537	535	535	535	536	539	538	537	537	537	538	537	537	537	535	532	532	535	542	539	540	532	533	532	532	533	533	537	536	534	533	531	530	532	532	534	533	529	529	532	534	530	532	533	533	529	529	527	526	526	525	526	525	527	524	526	525	523	521	521	518	520	523	520	518	522	518	515	518	513	525	515	0	511	500	502	494	0	0	0	0	0	0	0	0	0	0	0	0	0	0	0	0	0	0	0	0	0	0	0	0	501	0	0	0	0	0	0	0	0	0	0	0	0	0	0	0	0	0	0	0	0	0	0	0	0	0	0	0	0	0	0	0	0	0	0	0	0	0	0	0	0	0	0	0	0	0	0	0	0	0	0	0	0	0	0	0	0	0	0	0	0	0	0	0	0	0	0	0	0	0	0	0	0	0	0	0	0	0	0	0	0	0	0	0	0	0	0	0	0	0	0	0	0	0	0	0	0	0	0	0	0
0	0	0	0	0	0	0	0	0	0	0	0	0	0	0	0	0	0	0	0	0	0	0	0	0	0	0	0	0	0	0	0	0	0	0	0	0	0	0	0	0	0	0	0	0	0	0	0	0	0	0	0	0	0	0	0	0	0	0	0	0	0	0	0	0	0	0	0	0	0	0	0	0	0	0	0	0	0	0	0	0	0	0	0	0	0	0	0	0	0	0	0	0	0	0	0	0	0	0	0	0	0	0	0	0	0	0	0	0	0	0	0	0	0	0	0	0	0	0	0	0	0	0	0	0	0	0	0	0	0	0	0	0	0	0	0	0	0	0	407	406	0	0	0	416	0	429	459	0	0	0	0	0	0	0	0	0	0	0	481	478	0	473	0	0	0	0	0	0	0	0	0	0	0	107	107	0	111	0	0	0	108	114	113	117	118	120	121	122	124	126	129	132	132	132	131	132	131	132	133	133	133	134	134	134	134	134	134	135	135	135	135	134	132	130	126	0	0	0	0	0	0	0	0	0	0	0	0	0	0	0	0	0	0	0	0	0	129	0	0	0	0	0	0	0	0	0	0	0	0	0	0	0	0	0	0	0	0	154	152	155	154	153	153	154	152	152	152	151	149	147	0	0	0	0	0	0	0	555	553	548	0	0	0	0	0	0	0	0	0	0	0	0	0	0	0	0	0	0	0	0	0	0	0	0	0	0	0	0	0	0	0	0	0	528	530	527	528	528	528	528	530	529	529	528	528	528	530	531	533	533	533	531	532	532	532	533	533	533	532	533	532	532	533	534	533	533	535	534	535	536	537	538	537	537	534	536	535	535	535	537	536	534	534	534	534	535	535	537	537	537	537	538	537	538	537	539	539	539	539	539	538	538	538	539	541	540	541	542	542	541	542	541	542	543	543	543	543	543	543	542	541	542	540	541	541	542	543	543	543	543	542	543	543	545	543	543	544	544	544	544	546	546	545	544	543	542	541	542	543	543	544	543	543	544	544	544	545	545	545	547	548	549	550	550	548	546	545	544	545	544	546	547	548	548	549	548	546	546	547	547	549	549	550	549	549	549	548	548	547	548	548	551	550	551	550	550	548	548	547	548	548	548	548	549	550	550	550	548	547	546	547	547	548	548	549	549	547	548	548	548	549	551	551	552	551	551	550	549	549	549	549	549	549	549	548	548	548	548	548	548	548	547	547	548	549	549	550	551	551	550	549	548	548	548	550	550	551	551	551	550	552	552	551	551	551	550	551	550	550	550	549	549	550	551	550	552	551	552	552	552	550	552	550	551	550	551	551	551	551	553	552	551	552	552	552	551	549	548	547	549	551	550	551	551	550	549	550	550	549	548	548	547	547	547	549	548	548	548	548	548	548	549	549	550	551	551	552	551	551	549	548	546	548	547	548	546	547	545	548	548	549	549	548	547	546	546	547	547	547	548	549	550	549	550	549	550	548	548	548	548	546	545	546	546	547	547	547	546	545	546	547	549	550	549	546	546	543	545	546	547	545	547	548	547	549	550	550	550	549	549	548	547	546	546	545	544	546	546	546	546	547	547	548	549	549	550	548	548	545	544	546	546	547	547	546	545	545	545	546	545	544	544	544	544	545	546	546	544	542	540	540	542	542	542	544	545	542	541	542	541	541	541	542	539	540	541	542	542	542	541	541	541	540	540	541	540	541	540	541	539	540	538	540	537	537	538	540	539	538	537	540	540	538	543	538	539	540	539	535	535	534	534	535	535	532	534	534	538	537	537	538	535	535	537	538	534	534	532	529	533	534	536	536	534	533	533	534	533	535	534	537	536	538	535	532	530	535	536	532	529	526	529	526	531	531	532	529	530	528	530	524	527	524	525	525	524	524	524	525	524	523	520	521	519	520	517	519	517	519	517	516	515	518	517	0	0	503	499	498	0	505	0	0	0	0	0	0	0	0	0	0	0	0	0	0	0	0	0	0	0	0	504	0	0	0	0	0	0	0	0	0	0	492	0	0	0	0	0	0	0	0	0	0	0	0	0	0	0	0	0	0	0	0	0	0	0	0	0	0	0	0	0	0	0	0	0	0	0	0	0	0	0	0	0	0	0	0	0	0	0	0	0	0	0	0	0	0	0	0	0	0	0	0	0	0	0	0	0	0	0	0	0	0	0	0	0	0	0	0	0	0	0	0	0	0	0	0	0	0	0	0	0	0	0	0
