0	0	0	0	0	0	0	0	0	0	0	0	0	0	0	0	0	0	0	0	0	0	0	0	0	0	0	0	0	0	0	0	0	0	0	0	0	0	0	0	0	0	0	0	0	0	0	0	0	0	0	0	0	0	0	0	0	0	0	0	0	0	0	0	0	0	0	0	0	0	0	0	0	0	0	0	0	0	0	0	0	0	0	0	0	0	0	0	0	0	0	0	0	0	0	0	0	0	0	0	0	0	0	0	0	0	0	0	0	0	0	0	0	0	0	0	0	0	0	0	0	0	0	349	369	0	378	0	366	0	0	0	365	372	373	362	0	0	380	379	388	389	394	402	401	400	405	403	407	405	408	410	414	414	419	418	425	425	422	425	426	426	426	432	432	436	436	437	438	439	442	443	445	447	448	449	450	451	450	452	452	454	448	453	451	452	460	466	468	473	479	486	0	497	0	0	0	0	0	463	466	454	0	0	0	0	0	0	0	473	484	0	0	0	0	456	460	455	458	456	457	459	0	0	0	0	511	512	513	516	514	518	520	509	519	519	521	522	527	535	0	582	609	613	617	623	623	623	628	633	637	640	644	646	648	648	650	651	646	650	657	652	651	637	0	559	556	553	551	549	549	548	549	548	548	547	548	548	550	550	550	550	551	549	551	551	551	550	552	551	551	551	551	552	552	553	553	552	551	551	551	551	552	554	555	555	556	556	556	557	556	555	556	555	553	553	554	554	554	554	553	553	554	553	553	551	552	550	550	551	559	560	0	0	0	0	0	0	0	0	0	0	0	0	0	0	0	0	0	552	0	0	0	0	0	562	0	0	555	0	0	0	0	0	0	543	0	0	0	544	0	0	0	0	0	0	0	551	0	0	0	0	0	0	0	0	0	0	0	558	566	0	551	552	0	0	0	0	554	0	0	537	550	537	543	549	0	0	0	0	0	0	0	0	0	563	556	0	0	0	561	0	0	545	552	571	567	0	547	544	0	0	564	0	562	0	568	565	562	0	0	549	0	0	0	542	538	0	0	558	0	555	0	0	0	0	0	568	0	571	0	0	0	0	0	0	0	556	558	0	0	0	0	0	0	538	536	0	0	0	0	0	559	552	563	0	557	0	0	0	0	554	554	562	0	547	557	542	0	0	0	558	0	0	0	0	0	548	547	549	544	555	555	568	0	554	0	552	534	547	538	0	556	0	0	0	548	551	0	0	563	0	0	546	554	0	0	0	0	0	0	0	541	542	557	554	559	561	556	543	540	547	540	547	537	542	0	0	0	0	552	0	572	0	0	0	0	541	537	548	555	556	0	0	567	0	0	0	565	546	546	545	0	550	547	0	0	551	533	538	535	535	543	538	0	554	0	545	547	0	0	559	560	570	0	560	552	551	0	0	0	553	0	548	538	542	542	544	0	544	548	0	0	550	545	0	540	557	548	562	564	551	0	546	0	536	0	0	536	0	543	551	560	561	553	0	0	550	0	560	0	553	539	540	539	539	517	0	0	0	0	0	0	554	557	0	0	0	0	0	0	0	0	0	533	0	0	0	0	529	0	0	0	0	0	534	0	0	0	0	0	0	0	0	0	0	0	0	0	0	0	547	0	0	539	534	0	532	0	531	0	543	0	0	535	533	0	526	532	0	532	0	535	532	537	534	538	536	532	533	533	531	530	529	530	529	530	529	532	530	531	530	531	530	529	527	526	526	525	528	527	527	527	527	527	527	525	524	521	523	523	523	523	524	522	523	524	523	524	522	521	520	521	521	523	521	521	519	517	517	516	516	515	518	518	519	520	518	518	519	517	519	519	518	515	517	514	515	515	513	512	511	512	511	515	511	513	510	513	509	511	510	509	507	505	505	505	507	506	507	507	506	506	505	506	505	506	504	505	505	507	508	505	503	501	502	502	500	499	500	497	496	498	497	499	497	496	495	495	491	493	495	492	495	497	496	493	493	487	487	493	485	488	494	490	486	487	483	0	0	0	0	0	0	0	0	0	0	0	0	0	0	0	0	0	0	0	0	0	0	0	0	0	0	0	0	0	0	0	0	0	0	0	0	0	0	0	0	0	0	0	0	0	0	0	0	0	0	0	0	0	0	0	0	0	0	0	0	0	0	0	0	0	0	0	0	0	0	0	0	0	0	0	0	0	0	0	0	0	0	0	0	0	0	0	0	0	0	0	0	0	0	0
0	0	0	0	0	0	0	0	0	0	0	0	0	0	0	0	0	0	0	0	0	0	0	0	0	0	0	0	0	0	0	0	0	0	0	0	0	0	0	0	0	0	0	0	0	0	0	0	0	0	0	0	0	0	0	0	0	0	0	0	0	0	0	0	0	0	0	0	0	0	0	0	0	0	0	0	0	0	0	0	0	0	0	0	0	0	0	0	0	0	0	0	0	0	0	0	0	0	0	0	0	0	0	0	0	0	0	0	0	0	0	0	0	0	0	0	0	0	0	0	0	0	0	357	0	0	0	0	0	0	0	381	0	375	378	386	383	387	389	0	388	401	397	0	405	395	402	397	403	401	411	409	412	415	421	419	423	421	422	424	425	429	430	432	433	434	435	437	437	441	442	443	446	447	448	449	450	453	453	454	453	454	448	455	452	452	451	459	463	474	483	484	490	0	0	0	0	0	0	462	0	460	463	0	0	0	0	0	0	0	460	485	456	0	0	449	455	455	454	453	456	453	0	0	0	506	511	516	517	519	520	521	520	519	520	522	521	525	523	558	567	589	609	611	621	622	628	629	631	634	638	643	644	648	648	647	649	648	649	653	656	654	651	645	602	563	557	554	553	553	551	550	550	548	548	548	549	548	550	550	551	550	551	551	552	552	553	553	554	554	553	553	553	553	553	554	554	553	552	551	553	552	552	554	554	554	555	556	555	557	557	556	557	556	555	554	555	554	554	553	554	552	553	552	553	551	551	549	552	0	548	538	0	563	0	0	0	0	0	0	0	0	0	0	0	0	0	549	554	0	0	0	559	563	0	0	0	0	556	550	0	0	0	0	0	544	0	545	558	554	0	0	0	0	0	0	0	565	554	0	0	0	0	0	0	563	0	543	0	0	0	0	0	0	542	550	0	554	0	0	565	0	546	538	543	0	0	557	0	563	0	0	0	0	564	559	0	0	0	547	542	0	0	569	0	565	567	554	549	0	542	553	0	573	567	0	0	0	565	0	0	0	0	541	549	548	0	554	0	0	0	553	0	0	0	0	0	0	0	0	560	567	0	0	548	537	535	541	555	0	0	0	554	0	543	543	543	545	0	0	0	553	561	547	558	0	555	0	0	0	0	567	553	553	555	538	536	537	545	557	0	544	0	0	536	535	0	532	0	535	550	0	543	552	0	547	540	556	526	545	542	0	551	561	566	558	560	0	559	571	566	552	0	550	548	556	0	0	0	0	533	0	0	542	554	0	570	0	570	551	537	541	0	555	555	542	0	0	546	0	565	543	552	543	0	539	0	0	0	0	547	554	0	0	563	564	0	0	0	0	0	554	0	0	0	0	547	0	540	0	531	0	528	546	537	549	0	545	548	0	0	0	0	557	550	0	561	561	558	0	0	0	0	535	554	542	546	547	535	546	0	0	0	0	0	0	0	531	557	573	557	0	539	551	0	0	0	0	0	0	0	0	547	0	541	0	550	568	564	0	0	554	540	536	0	538	0	0	0	0	0	0	0	0	0	0	0	0	0	0	0	0	0	0	0	0	0	0	0	0	0	527	0	0	532	540	0	0	0	0	0	0	0	524	0	0	0	0	0	546	542	539	543	0	0	0	525	517	0	0	0	541	0	529	520	0	540	531	537	0	537	528	535	0	535	537	535	530	535	533	533	537	535	532	531	529	531	530	530	530	532	531	531	531	529	527	526	526	526	527	527	528	530	531	530	529	527	524	522	525	524	526	524	524	524	523	524	525	526	524	524	522	522	522	522	523	522	521	519	520	520	519	519	517	519	520	520	519	518	518	518	516	518	519	517	516	516	517	516	515	513	511	512	512	515	513	515	514	515	512	512	511	511	508	509	510	509	508	510	505	507	504	505	504	508	506	506	505	506	506	508	505	506	508	505	504	502	503	500	496	494	497	497	499	499	499	497	497	494	494	492	491	502	500	494	493	495	496	492	491	486	486	0	489	494	491	489	496	0	0	521	533	0	0	0	0	0	496	0	0	0	0	0	0	0	0	0	0	0	0	0	0	0	0	0	0	0	0	0	0	0	0	0	0	0	0	0	0	0	0	0	0	0	0	0	0	0	0	0	0	0	0	0	0	0	0	0	0	0	0	0	0	0	0	0	0	0	0	0	0	0	0	0	0	0	0	0	0	0	0	0	0	0	0	0	0	0	0	0	0	0	0	0
0	0	0	0	0	0	0	0	0	0	0	0	0	0	0	0	0	0	0	0	0	0	0	0	0	0	0	0	0	0	0	0	0	0	0	0	0	0	0	0	0	0	0	0	0	0	0	0	0	0	0	0	0	0	0	0	0	0	0	0	0	0	0	0	0	0	0	0	0	0	0	0	0	0	0	0	0	0	0	0	0	0	0	0	0	0	0	0	0	0	0	0	0	0	0	0	0	0	0	0	0	0	0	0	0	0	0	0	0	0	0	0	0	0	0	0	0	0	0	0	0	0	0	0	0	0	0	0	0	0	0	0	374	0	374	380	388	385	379	0	386	392	402	400	405	404	406	404	406	405	407	410	411	415	422	424	425	423	421	425	424	429	430	433	433	434	436	438	440	442	444	445	447	448	449	451	451	454	452	455	453	451	452	453	452	461	460	458	473	488	482	0	0	0	0	0	0	0	0	0	454	465	453	0	0	0	481	0	0	495	0	0	0	460	459	459	449	450	452	453	459	460	481	0	514	511	510	518	515	521	521	518	517	519	519	521	524	526	537	545	586	608	613	615	625	622	629	628	632	631	640	642	645	648	646	649	650	647	653	657	656	660	655	637	598	562	559	554	553	553	551	551	550	550	550	549	550	549	551	551	554	553	553	552	552	551	553	553	554	554	554	554	554	553	553	554	554	553	553	551	552	552	553	554	554	554	555	555	554	557	557	555	555	556	555	554	555	555	554	553	554	553	553	553	554	552	553	551	553	548	0	554	0	559	557	553	0	0	0	0	0	0	0	0	0	0	0	0	558	0	0	0	0	0	0	0	0	0	0	0	544	541	546	0	0	0	0	0	0	571	0	0	0	0	0	0	0	556	0	0	553	560	0	0	554	0	0	0	0	0	0	0	549	0	0	0	536	0	0	547	554	0	550	0	0	552	0	0	569	0	558	0	0	0	559	554	0	0	546	0	0	0	561	0	568	0	583	564	580	0	0	0	0	576	566	0	568	0	0	0	554	0	539	537	544	542	0	0	561	542	547	543	0	0	0	0	0	0	0	0	0	571	567	554	0	0	543	545	0	538	549	0	545	0	0	556	548	550	0	0	547	541	0	0	555	552	565	0	549	0	543	544	0	0	0	0	0	0	541	0	555	0	0	544	537	531	539	531	548	551	546	553	544	548	546	0	0	0	0	0	539	551	547	554	550	544	555	558	560	0	557	560	0	0	545	0	0	544	547	0	0	534	536	544	551	0	577	0	560	546	555	553	549	554	0	0	0	0	557	0	549	558	0	0	0	540	544	0	547	545	0	558	556	554	573	0	0	579	582	0	0	549	549	0	0	0	0	531	533	532	538	539	0	0	543	546	541	556	554	554	0	0	0	0	541	0	555	550	0	0	0	0	0	554	555	557	0	0	0	549	0	568	0	0	0	0	0	0	0	0	0	549	541	0	0	554	550	0	0	0	0	569	0	0	538	0	0	0	0	0	0	0	550	547	0	0	0	0	0	0	0	0	0	0	0	0	0	0	0	0	0	0	0	0	522	0	527	0	0	0	0	532	524	520	0	0	0	0	0	0	0	0	0	0	0	0	0	0	0	0	545	0	0	0	0	0	0	0	527	0	0	527	532	530	523	0	0	0	0	530	541	0	0	0	536	0	543	538	540	543	541	534	535	533	533	531	534	534	531	532	532	532	530	530	530	529	528	529	528	526	527	526	529	530	530	529	528	527	527	527	528	528	525	523	524	523	525	526	525	527	526	524	525	524	525	524	523	521	520	522	522	521	523	521	519	519	521	520	519	520	517	519	518	519	519	521	520	519	516	516	514	513	516	514	515	515	516	512	515	513	513	511	509	508	508	508	507	507	511	507	505	506	506	505	509	508	509	506	507	505	507	506	510	505	504	506	504	505	501	500	498	499	502	501	499	501	499	496	495	494	494	494	495	497	495	496	493	491	494	497	488	0	489	489	497	494	0	491	503	0	0	0	0	0	0	0	0	0	0	0	0	0	0	0	0	0	0	0	0	0	0	0	0	0	0	0	0	0	0	0	0	0	0	0	0	0	0	0	0	0	0	0	0	0	0	0	0	0	0	0	0	0	0	0	0	0	0	0	0	0	0	0	0	0	0	0	0	0	0	0	0	0	0	0	0	0	0	0	0	0	0	0	0	0	0	0	0	0	0	0	0	0	0
0	0	0	0	0	0	0	0	0	0	0	0	0	0	0	0	0	0	0	0	0	0	0	0	0	0	0	0	0	0	0	0	0	0	0	0	0	0	0	0	0	0	0	0	0	0	0	0	0	0	0	0	0	0	0	0	0	0	0	0	0	0	0	0	0	0	0	0	0	0	0	0	0	0	0	0	0	0	0	0	0	0	0	0	0	0	0	0	0	0	0	0	0	0	0	0	0	0	0	0	0	0	0	0	0	0	0	0	0	0	0	0	0	0	0	0	0	0	0	0	0	0	0	0	0	0	0	0	0	0	0	0	0	0	0	380	391	384	386	389	393	403	405	403	404	0	405	402	408	406	406	405	411	416	421	424	423	421	421	422	427	431	433	434	434	436	436	439	442	444	446	447	448	449	449	450	453	455	455	456	454	456	452	456	453	460	451	0	475	0	488	468	0	0	0	0	0	0	0	0	466	0	0	464	0	0	0	0	0	0	0	475	459	458	455	453	450	447	450	452	459	470	475	487	507	518	516	516	520	523	520	521	518	521	520	524	525	534	544	583	593	607	613	620	620	629	632	632	631	640	634	643	646	646	647	647	646	650	655	655	658	662	651	639	582	568	558	556	555	554	553	552	550	552	550	549	549	548	550	550	553	554	553	553	553	552	553	555	555	556	556	556	554	554	555	554	554	554	553	551	553	552	554	554	554	555	556	556	557	560	558	557	557	556	555	555	556	555	555	554	555	555	556	555	556	553	553	552	554	559	545	555	0	551	0	0	0	0	0	0	0	0	0	0	0	0	556	0	0	542	0	0	0	0	0	0	0	0	0	0	0	0	540	541	0	551	0	560	0	0	0	0	0	0	0	0	0	0	563	561	0	0	0	0	0	0	0	0	0	0	0	0	0	0	0	537	533	0	0	546	0	0	0	554	0	0	0	562	568	0	0	552	556	550	551	557	563	549	530	543	0	0	0	584	574	0	0	0	0	0	0	0	563	550	567	560	0	578	0	571	558	0	0	538	543	546	555	561	541	0	557	0	548	0	0	0	547	0	540	0	0	549	558	558	568	0	549	541	0	0	0	0	542	551	548	567	557	555	553	0	546	539	0	0	536	550	560	0	560	0	536	542	550	0	0	0	0	539	540	553	546	0	0	547	0	530	524	0	537	542	548	543	539	547	536	542	536	549	555	546	546	557	546	0	558	0	0	0	570	557	0	551	556	553	549	559	550	550	0	0	534	538	0	0	0	560	582	566	0	548	552	559	556	559	553	0	0	0	549	0	561	548	0	548	540	530	544	544	556	543	563	551	560	558	0	569	0	574	565	0	0	0	559	0	554	0	543	543	542	544	544	0	0	0	546	553	548	0	556	0	0	0	0	0	555	557	0	551	0	0	0	0	0	0	545	0	0	0	0	549	0	0	553	0	0	0	0	0	0	547	0	0	548	541	0	0	0	0	0	0	0	0	0	0	544	556	0	0	0	0	0	0	536	533	542	0	0	0	0	0	0	551	0	0	551	0	0	0	0	0	0	0	0	0	519	0	0	0	0	533	533	0	545	520	537	531	524	0	0	0	0	0	0	0	0	0	0	0	539	548	0	0	0	0	0	0	0	0	0	533	531	0	529	531	528	522	521	0	0	523	534	0	0	0	0	529	528	0	530	532	548	535	539	533	534	534	535	533	531	532	534	534	533	532	531	531	531	530	528	526	527	526	530	531	532	530	529	528	527	529	529	526	526	525	525	526	528	528	528	529	527	526	526	525	525	525	524	524	524	525	526	523	522	521	520	521	523	520	520	519	517	518	516	516	518	519	519	518	519	517	516	516	515	516	518	518	519	517	521	517	514	515	514	512	513	510	512	509	510	506	508	505	507	507	509	509	510	507	506	506	507	506	505	505	505	507	506	503	501	502	500	501	501	502	501	501	499	498	496	495	494	494	497	494	494	496	491	499	493	495	495	488	491	493	0	502	499	508	0	0	0	543	0	0	0	0	0	0	0	0	469	0	0	0	0	0	0	0	0	0	0	0	0	0	0	0	0	0	0	0	0	0	0	0	0	0	0	0	0	0	0	0	0	0	0	0	0	0	0	0	0	0	0	0	0	0	0	0	0	0	0	0	0	0	0	0	0	0	0	0	0	0	0	0	0	0	0	0	0	0	0	0	0	0	0	0	0	0	0	0	0	0	0
0	0	0	0	0	0	0	0	0	0	0	0	0	0	0	0	0	0	0	0	0	0	0	0	0	0	0	0	0	0	0	0	0	0	0	0	0	0	0	0	0	0	0	0	0	0	0	0	0	0	0	0	0	0	0	0	0	0	0	0	0	0	0	0	0	0	0	0	0	0	0	0	0	0	0	0	0	0	0	0	0	0	0	0	0	0	0	0	0	0	0	0	0	0	0	0	0	0	0	0	0	0	0	0	0	0	0	0	0	0	0	0	0	0	0	0	0	0	0	0	0	0	0	0	0	0	0	0	0	0	0	0	0	0	379	381	391	391	391	392	0	402	405	405	408	406	410	409	409	409	408	408	413	415	422	423	424	425	423	423	429	431	432	433	434	435	439	440	443	444	446	448	450	449	452	452	452	454	455	455	453	454	452	453	454	460	460	470	0	477	0	0	0	0	0	0	0	0	0	0	466	0	456	458	457	0	0	0	492	0	0	464	456	466	456	454	452	450	450	455	465	480	492	500	514	515	516	518	522	521	520	520	519	521	522	526	530	534	548	570	600	608	618	620	623	624	623	630	631	634	636	642	642	645	647	647	648	649	657	657	661	661	650	633	575	564	559	556	553	553	553	552	552	553	551	550	550	549	550	552	555	556	555	553	553	551	553	554	555	557	557	557	556	556	555	555	555	555	554	553	553	553	554	554	555	555	555	557	559	560	558	556	557	556	555	556	557	555	555	555	556	557	557	556	555	553	553	552	549	545	0	0	0	0	0	0	0	0	0	0	0	0	0	0	0	0	0	0	552	569	0	0	0	535	0	562	565	0	0	539	0	0	0	0	0	536	545	546	554	547	0	540	539	0	538	0	0	0	0	0	555	562	554	0	0	551	0	0	0	0	0	0	0	0	0	0	0	0	0	0	0	0	0	0	548	568	556	575	570	564	0	0	0	540	0	0	0	0	553	0	552	0	0	0	565	0	0	0	0	0	0	561	0	553	553	0	572	0	0	0	0	551	0	542	0	548	549	552	561	0	547	0	549	0	0	545	0	547	0	539	0	542	558	0	546	552	554	0	558	555	574	558	0	561	559	0	0	536	544	0	0	0	545	536	0	554	0	0	0	538	540	542	546	0	0	0	0	549	550	551	546	564	0	0	540	529	532	0	530	547	0	546	538	533	524	537	546	0	0	561	553	0	547	552	546	544	553	555	0	555	0	0	0	554	0	0	551	545	0	0	0	0	0	540	0	550	550	556	548	556	552	539	0	556	0	0	0	0	0	555	552	0	536	0	538	539	0	0	562	561	563	0	566	573	564	572	576	0	0	544	0	555	0	550	0	539	0	541	537	545	543	0	0	0	0	0	565	565	0	0	0	0	0	0	0	0	0	555	0	0	0	551	551	549	0	0	558	0	0	0	0	0	536	0	0	0	556	0	560	546	540	535	531	548	548	555	551	0	0	0	0	0	546	544	553	557	0	0	0	0	551	558	561	0	0	0	0	0	0	0	0	0	0	537	541	0	564	570	0	0	0	0	0	0	0	0	526	538	545	555	0	0	0	520	0	0	0	0	0	0	0	0	0	529	531	0	535	0	0	0	548	540	0	0	0	0	0	0	0	0	0	0	532	0	0	0	517	0	0	531	551	0	0	543	0	0	530	522	540	0	540	0	533	535	537	539	0	531	536	535	536	539	533	534	533	531	534	532	530	527	527	527	531	532	531	532	531	529	530	529	529	529	526	525	527	526	526	531	531	530	527	526	527	528	526	527	526	524	526	524	525	523	523	521	520	521	521	520	520	519	517	516	516	516	518	519	519	517	518	517	515	518	517	517	519	519	520	519	518	517	520	518	515	512	509	508	509	508	509	508	506	507	509	509	512	512	511	509	509	508	504	505	506	505	507	507	505	507	504	504	502	503	503	502	501	501	500	500	499	497	496	492	495	493	493	492	494	492	497	491	493	501	507	490	495	0	498	504	0	0	0	0	0	0	0	0	0	0	0	0	0	0	478	0	0	0	0	0	0	0	0	0	0	0	0	0	0	0	0	0	0	0	0	0	0	0	0	0	0	0	0	0	0	0	0	0	0	0	0	0	0	0	0	0	0	0	0	0	0	0	0	0	0	0	0	0	0	0	0	0	0	0	0	0	0	0	0	0	0	0	0	0	0	0	0	0	0	0	0	0	0	0	0
0	0	0	0	0	0	0	0	0	0	0	0	0	0	0	0	0	0	0	0	0	0	0	0	0	0	0	0	0	0	0	0	0	0	0	0	0	0	0	0	0	0	0	0	0	0	0	0	0	0	0	0	0	0	0	0	0	0	0	0	0	0	0	0	0	0	0	0	0	0	0	0	0	0	0	0	0	0	0	0	0	0	0	0	0	0	0	0	0	0	0	0	0	0	0	0	0	0	0	0	0	0	0	0	0	0	0	0	0	0	0	0	0	0	0	0	0	0	0	0	0	352	0	353	0	0	366	0	358	366	0	0	0	0	372	377	377	389	395	400	403	402	404	407	407	408	409	408	409	407	408	408	411	416	419	422	425	422	422	425	430	430	433	433	436	437	440	442	444	445	447	448	450	452	451	453	453	455	454	455	454	454	452	456	458	458	476	0	477	487	481	0	0	0	0	0	0	0	0	0	0	0	449	453	0	0	493	0	494	473	457	463	453	456	454	453	453	450	451	457	483	480	499	510	513	516	518	519	519	521	520	522	522	522	524	532	532	543	555	575	597	610	611	619	621	627	626	633	628	635	633	636	643	646	646	647	654	654	654	662	658	662	648	641	585	565	558	556	554	554	552	553	552	553	553	552	549	551	550	552	554	555	554	555	553	552	553	555	554	556	557	557	557	556	556	556	556	555	556	555	555	554	554	553	554	555	556	556	558	559	558	557	556	556	555	556	557	557	557	557	558	558	558	557	556	554	554	553	556	556	535	550	0	0	569	0	0	0	0	0	0	0	0	0	0	0	0	0	0	0	0	0	0	556	544	536	543	0	0	0	0	0	0	0	0	0	0	544	556	0	0	0	0	538	0	0	0	0	551	0	0	0	0	546	0	0	0	0	0	0	0	0	0	571	560	553	0	0	534	0	0	0	0	0	0	0	556	566	561	577	0	0	0	0	0	563	556	0	562	0	0	562	562	578	0	0	0	550	0	0	0	0	0	537	543	542	0	0	0	0	567	564	556	546	550	553	558	0	0	564	557	548	545	529	0	0	0	531	535	546	0	549	548	0	562	554	0	0	564	568	569	566	567	561	563	555	551	548	0	0	0	0	0	559	551	0	0	0	553	551	538	538	540	0	0	0	542	543	0	0	544	558	0	556	542	0	0	0	0	540	539	541	0	525	536	540	552	558	0	562	553	557	544	547	0	549	0	558	568	0	554	540	0	553	540	552	548	552	528	542	0	540	566	548	542	0	0	562	0	0	549	0	549	546	567	0	564	0	552	0	551	0	0	546	0	541	0	546	562	0	568	0	558	560	558	566	553	0	548	553	546	550	0	537	0	527	0	0	0	554	551	0	0	0	0	0	0	0	0	0	0	0	0	0	0	0	0	549	0	0	0	0	0	0	550	554	0	552	0	0	0	548	549	553	549	574	0	0	0	0	0	530	0	0	546	552	0	547	0	0	529	0	0	0	0	551	0	0	0	0	0	547	0	0	0	557	0	0	0	0	0	0	0	529	0	0	0	0	557	0	0	0	0	522	528	0	533	0	0	544	0	0	0	0	0	528	530	0	548	543	540	539	0	0	0	540	0	544	554	556	0	542	542	0	0	535	549	0	0	546	0	0	533	528	528	0	0	0	522	536	0	0	0	0	0	0	537	527	0	0	0	0	0	534	0	0	0	540	534	533	534	536	533	535	534	533	533	534	531	528	529	530	533	534	533	533	532	532	530	529	530	529	529	529	530	532	532	533	531	531	527	526	526	526	526	525	526	526	527	527	527	524	524	523	522	522	522	523	521	523	521	517	518	517	518	517	518	519	520	519	517	516	517	516	519	522	522	521	520	519	522	520	518	514	514	511	510	508	508	507	507	508	508	509	509	509	509	509	508	507	506	506	506	507	506	508	507	506	502	503	501	503	505	503	501	501	502	500	500	496	498	495	496	495	497	495	495	495	496	496	503	493	495	0	499	500	490	497	0	0	0	0	556	533	0	0	484	482	480	0	0	0	0	0	0	0	0	0	0	0	0	0	0	0	0	0	0	0	0	0	0	0	0	0	0	0	0	0	0	0	0	0	0	0	0	0	0	0	0	0	0	0	0	0	0	0	0	0	0	0	0	0	0	0	0	0	0	0	0	0	0	0	0	0	0	0	0	0	0	0	0	0	0	0	0	0	0	0	0	0	0	0	0
0	0	0	0	0	0	0	0	0	0	0	0	0	0	0	0	0	0	0	0	0	0	0	0	0	0	0	0	0	0	0	0	0	0	0	0	0	0	0	0	0	0	0	0	0	0	0	0	0	0	0	0	0	0	0	0	0	0	0	0	0	0	0	0	0	0	0	0	0	0	0	0	0	0	0	0	0	0	0	0	0	0	0	0	0	0	0	0	0	0	0	0	0	0	0	0	0	0	0	0	0	0	0	0	0	0	0	0	0	0	0	0	0	0	0	0	0	0	0	374	0	0	355	0	0	0	0	346	363	0	364	371	0	0	383	381	392	396	395	396	401	0	407	400	409	408	411	410	410	410	410	412	415	417	422	425	426	427	424	427	430	431	433	434	436	439	441	443	443	445	446	448	453	453	457	453	456	453	455	455	453	453	453	453	457	460	0	0	478	0	469	0	0	0	0	0	0	0	0	0	0	471	0	457	0	487	0	513	491	472	469	462	462	458	453	457	452	454	455	465	471	0	515	518	515	515	519	518	519	521	521	523	522	524	526	529	534	548	0	597	604	609	618	618	623	623	627	627	630	635	637	640	643	644	649	650	655	656	661	665	662	661	641	605	579	563	558	555	553	552	553	553	552	554	555	553	552	553	552	553	554	556	554	555	555	554	554	555	555	555	555	557	557	556	556	557	556	556	557	556	555	555	555	554	554	557	558	558	560	560	559	556	557	555	555	556	557	557	558	559	559	560	560	559	557	556	556	554	553	549	544	555	552	0	0	578	0	576	0	557	560	0	0	0	0	0	0	0	0	0	0	0	0	0	0	537	0	0	0	0	567	0	0	0	0	542	0	540	558	0	0	548	535	542	0	547	0	0	0	0	0	0	549	0	552	548	0	0	0	0	0	0	585	0	0	0	541	545	539	0	553	564	0	0	0	0	560	0	569	560	549	547	543	540	0	0	0	560	549	0	0	0	563	562	0	0	0	544	544	555	566	0	0	0	0	0	0	541	0	0	563	0	553	0	0	564	561	0	560	0	540	543	0	0	0	0	0	533	544	549	557	0	0	0	553	0	564	568	575	0	564	565	574	0	0	559	554	534	0	0	0	0	553	0	542	557	0	560	559	0	539	542	550	0	0	555	0	552	558	548	0	544	551	553	545	549	0	0	535	540	543	538	535	539	543	0	551	560	0	558	553	0	542	551	0	541	557	561	0	547	0	552	0	535	0	554	549	553	0	532	0	0	0	0	550	550	549	555	560	556	553	0	549	0	557	0	0	559	0	557	0	0	0	0	0	555	560	560	562	566	563	564	557	0	553	560	558	551	0	551	0	527	543	537	0	0	0	0	0	560	0	559	0	0	0	0	0	0	0	0	0	555	552	0	0	0	0	0	543	537	532	0	545	549	559	0	0	0	0	545	540	552	552	567	0	0	554	561	0	0	0	0	0	0	541	0	0	0	0	536	526	0	0	0	0	0	0	0	0	538	535	546	544	0	0	0	0	0	0	0	0	529	0	0	530	0	0	553	0	0	0	0	0	540	0	525	532	532	546	543	0	0	0	0	0	0	544	0	0	548	0	541	0	0	0	0	565	549	553	0	553	0	0	0	0	545	0	0	0	0	0	0	0	536	0	0	522	0	528	0	0	567	566	0	0	0	0	527	0	0	537	521	539	0	550	0	0	536	0	540	535	542	0	535	535	534	536	533	533	531	532	531	534	535	533	533	532	531	531	531	530	529	531	532	529	531	533	533	531	529	525	525	525	525	527	526	525	526	526	524	525	523	523	523	524	523	524	524	523	522	521	520	521	518	519	518	519	520	520	519	518	516	516	517	518	521	521	519	520	521	520	519	518	514	511	511	510	509	509	509	509	512	512	514	511	512	512	510	510	509	508	505	504	506	505	506	506	507	503	504	503	504	504	507	502	501	504	501	503	502	499	496	498	499	500	493	497	495	494	498	502	498	0	497	0	495	497	502	0	0	0	542	539	543	0	0	0	0	0	0	0	0	0	0	0	0	0	0	0	0	0	0	0	0	0	0	0	0	0	0	0	0	0	0	0	0	0	0	0	0	0	0	0	0	0	0	0	0	0	0	0	0	0	0	0	0	0	0	0	0	0	0	0	0	0	0	0	0	0	0	0	0	0	0	0	0	0	0	0	0	0	0	0	0	0	0	0	0	0	0	0	0	0
0	0	0	0	0	0	0	0	0	0	0	0	0	0	0	0	0	0	0	0	0	0	0	0	0	0	0	0	0	0	0	0	0	0	0	0	0	0	0	0	0	0	0	0	0	0	0	0	0	0	0	0	0	0	0	0	0	0	0	0	0	0	0	0	0	0	0	0	0	0	0	0	0	0	0	0	0	0	0	0	0	0	0	0	0	0	0	0	0	0	0	0	0	0	0	0	0	0	0	0	0	0	0	0	0	0	0	0	0	0	0	0	0	0	0	0	0	0	0	0	0	0	0	376	0	0	372	0	353	362	357	367	0	0	0	384	395	394	398	397	401	405	403	403	407	408	412	411	411	409	414	414	414	420	420	424	425	429	429	428	430	432	434	437	438	441	442	444	444	446	449	450	453	454	454	457	455	457	453	455	454	453	455	455	463	467	0	0	0	0	471	0	0	0	0	0	0	0	0	0	0	0	0	0	0	495	0	0	486	457	471	460	455	456	456	455	453	454	459	455	0	0	522	513	519	516	521	518	521	521	521	523	523	527	527	532	543	573	575	595	609	609	615	618	620	624	627	630	632	632	636	639	643	646	648	653	658	659	663	665	662	659	638	613	573	563	558	556	554	553	552	551	551	552	553	553	553	553	553	554	554	556	554	555	554	556	555	556	556	557	556	557	558	558	558	557	557	557	558	557	557	556	556	555	557	559	559	559	561	560	559	558	558	557	556	557	558	559	559	560	560	560	560	559	557	556	556	557	559	0	552	554	562	0	579	0	0	577	0	557	0	0	0	0	0	0	0	0	0	559	558	564	0	560	0	0	0	0	0	0	564	0	0	0	0	540	548	0	0	0	0	0	549	550	557	0	563	0	0	0	0	0	568	0	0	0	0	524	0	0	0	0	0	573	0	0	546	565	0	0	552	0	0	550	554	565	564	0	570	583	0	0	548	559	0	0	0	566	559	0	0	0	0	0	0	0	550	538	552	0	0	0	0	545	543	540	0	0	561	0	560	0	549	547	0	559	565	572	563	0	0	0	0	0	540	0	0	534	0	544	0	548	544	549	544	579	569	0	0	563	570	0	562	0	561	553	557	0	0	559	531	0	576	555	0	550	548	562	0	0	551	540	0	551	0	0	0	545	552	553	551	0	553	546	550	0	543	543	542	545	536	0	540	534	553	554	548	556	558	553	0	552	553	0	558	0	0	561	560	0	541	554	0	546	549	564	0	0	547	0	538	542	0	559	554	565	566	547	558	551	558	553	546	545	549	544	556	552	563	556	0	549	0	0	536	0	0	0	579	0	564	551	552	543	0	0	548	557	557	0	553	550	557	540	530	546	548	550	0	0	561	563	557	0	0	0	552	589	0	550	545	542	0	545	560	0	0	0	534	0	542	544	0	547	0	561	0	0	0	0	546	545	550	558	552	558	0	559	565	0	0	0	0	559	0	0	0	0	0	0	0	520	0	0	0	0	0	0	0	0	0	0	529	0	540	0	0	0	557	0	0	0	0	0	528	533	0	544	0	0	0	0	0	0	0	0	527	547	0	0	0	0	0	537	550	546	0	551	552	0	547	551	551	0	559	563	583	553	558	552	0	0	0	0	0	0	0	0	0	0	0	0	0	537	536	527	530	549	544	0	568	0	566	556	0	0	0	0	0	0	0	516	0	538	0	0	0	0	533	0	0	537	534	545	538	537	535	533	530	534	533	534	535	538	534	533	532	530	530	529	530	530	531	533	533	536	533	532	531	529	526	526	524	525	525	525	525	525	526	525	526	524	525	524	525	525	524	525	524	522	522	521	520	517	518	519	520	519	521	520	518	516	516	517	518	520	522	520	521	520	519	518	520	518	515	516	514	514	514	514	513	514	516	514	512	513	510	511	509	510	509	508	506	507	506	508	508	506	505	504	504	506	509	506	508	503	505	502	503	500	501	501	501	498	501	499	499	497	498	497	496	498	0	500	500	0	498	0	0	0	533	0	0	533	0	0	0	0	482	0	0	0	0	0	0	0	0	0	0	0	0	0	0	0	0	0	0	0	0	0	0	0	0	0	0	0	0	0	0	0	0	0	0	0	0	0	0	0	0	0	0	0	0	0	0	0	0	0	0	0	0	0	0	0	0	0	0	0	0	0	0	0	0	0	0	0	0	0	0	0	0	0	0	0	0	0	0	0	0	0	0	0	0
0	0	0	0	0	0	0	0	0	0	0	0	0	0	0	0	0	0	0	0	0	0	0	0	0	0	0	0	0	0	0	0	0	0	0	0	0	0	0	0	0	0	0	0	0	0	0	0	0	0	0	0	0	0	0	0	0	0	0	0	0	0	0	0	0	0	0	0	0	0	0	0	0	0	0	0	0	0	0	0	0	0	0	0	0	0	0	0	0	0	0	0	0	0	0	0	0	0	0	0	0	0	0	0	0	0	0	0	0	0	0	0	0	0	0	0	0	0	0	0	0	0	0	0	0	359	0	0	361	0	362	0	386	0	400	405	393	403	399	398	402	394	398	402	404	409	413	410	414	414	412	414	416	420	423	425	426	428	431	430	433	434	435	437	439	440	441	444	444	445	447	451	452	455	460	457	458	457	455	452	454	452	452	454	460	0	474	492	0	0	472	452	0	0	0	0	0	0	0	0	0	0	453	464	0	0	0	0	0	471	464	460	459	456	455	454	456	456	466	0	496	509	509	512	519	519	516	519	520	522	520	524	524	525	528	535	556	566	590	608	611	619	620	620	623	621	628	629	633	636	641	642	643	648	650	655	657	662	664	664	670	650	636	607	574	558	557	554	553	552	552	551	552	553	555	555	556	556	556	556	556	557	555	556	555	556	557	558	556	558	557	557	557	558	557	557	557	557	557	558	558	558	558	558	558	558	559	559	559	559	559	557	558	558	557	558	560	560	560	561	561	561	559	559	557	558	558	559	560	560	554	571	569	0	0	580	0	0	0	0	562	0	0	0	0	0	0	0	0	0	562	572	0	0	0	0	0	0	0	563	574	0	0	0	540	547	550	0	539	0	0	0	0	0	568	569	0	0	561	0	542	552	0	573	567	0	0	0	0	0	0	0	0	578	0	553	0	560	0	570	561	576	0	0	0	559	563	568	0	0	0	564	553	559	533	551	547	0	562	0	565	0	557	564	0	559	0	551	557	0	560	555	0	545	0	0	0	0	556	555	0	556	0	543	551	570	570	570	0	550	543	547	549	547	0	0	0	0	543	531	0	543	541	541	544	549	576	562	0	555	566	565	0	0	558	554	543	548	0	0	570	0	561	568	545	553	0	554	0	546	539	567	556	0	0	564	0	564	561	559	559	555	0	557	0	543	541	551	0	553	546	544	549	0	550	560	552	540	554	0	0	0	0	563	559	0	552	0	559	0	542	549	549	566	548	0	0	561	0	537	0	0	548	535	554	562	568	556	563	561	557	566	546	549	536	549	565	566	557	543	546	0	0	0	0	551	545	568	568	566	559	0	545	555	550	549	0	551	552	0	551	542	552	541	538	0	550	0	577	546	575	551	0	0	0	543	557	562	562	554	542	0	532	547	535	546	0	537	0	543	546	555	536	0	0	566	0	0	557	552	0	0	0	0	0	544	0	544	0	0	552	557	556	542	541	0	0	540	0	0	0	521	0	0	0	0	561	0	0	0	539	543	528	0	0	0	0	0	0	0	541	525	0	0	0	0	535	0	0	0	0	0	0	565	0	0	0	0	0	0	0	0	0	0	537	0	549	550	0	0	553	551	0	0	0	567	0	557	557	0	0	543	0	0	0	0	0	0	0	0	0	0	0	0	532	0	0	0	0	570	0	0	0	564	546	0	0	0	0	524	0	0	0	532	0	0	0	537	0	0	0	0	548	549	535	549	537	0	537	526	531	537	538	536	535	533	534	531	532	532	532	532	532	533	534	534	531	531	531	528	527	526	525	525	525	526	525	524	525	524	527	526	526	525	526	526	526	524	524	523	523	522	521	521	522	521	522	520	523	518	516	517	517	517	518	519	520	520	519	519	519	518	518	518	517	515	513	517	516	519	517	517	517	517	516	521	515	515	511	513	510	510	509	509	508	508	511	507	506	509	506	506	507	505	508	508	507	507	506	504	503	503	504	501	501	499	498	497	498	498	495	498	497	0	501	502	502	0	0	518	541	537	567	554	531	521	0	494	0	0	0	480	477	0	0	462	0	0	0	0	0	0	0	0	0	0	0	0	0	0	0	0	0	0	0	0	0	0	0	0	0	0	0	0	0	0	0	0	0	0	0	0	0	0	0	0	0	0	0	0	0	0	0	0	0	0	0	0	0	0	0	0	0	0	0	0	0	0	0	0	0	0	0	0	0	0	0	0	0	0	0	0	0
0	0	0	0	0	0	0	0	0	0	0	0	0	0	0	0	0	0	0	0	0	0	0	0	0	0	0	0	0	0	0	0	0	0	0	0	0	0	0	0	0	0	0	0	0	0	0	0	0	0	0	0	0	0	0	0	0	0	0	0	0	0	0	0	0	0	0	0	0	0	0	0	0	0	0	0	0	0	0	0	0	0	0	0	0	0	0	0	0	0	0	0	0	0	0	0	0	0	0	0	0	0	0	0	0	0	0	0	0	0	0	0	0	0	0	0	354	369	0	0	0	0	0	0	0	0	0	368	0	355	363	367	382	394	395	389	397	390	395	397	402	398	401	397	405	409	416	414	416	416	413	414	421	422	421	424	423	428	429	432	434	435	436	438	439	442	442	444	446	448	450	452	454	455	454	458	458	457	456	454	452	454	455	453	454	470	0	0	487	0	477	461	0	0	0	0	0	0	0	0	0	0	0	0	0	0	0	0	0	457	454	455	456	455	454	454	457	453	460	0	491	508	514	517	515	516	521	522	520	522	523	522	523	527	530	539	552	571	596	605	616	619	620	618	624	624	629	631	633	637	637	644	641	648	650	654	655	661	660	664	659	661	642	605	571	560	558	556	554	553	552	552	552	554	556	555	556	557	557	556	558	556	554	555	554	555	556	558	558	558	558	558	557	558	557	557	556	556	557	557	558	558	559	559	559	559	560	558	558	558	557	557	558	558	558	560	561	561	562	562	561	561	560	559	558	560	560	560	563	0	0	572	573	575	0	0	0	549	0	0	0	0	0	0	0	0	0	531	0	550	0	572	569	0	0	0	0	556	0	0	0	0	0	0	0	0	0	0	0	542	0	0	0	0	0	579	577	0	565	0	561	0	0	0	545	558	0	538	0	0	0	0	0	564	0	0	0	0	0	0	0	0	0	0	0	559	564	572	568	569	563	564	0	539	561	531	0	549	0	0	563	562	565	562	0	563	0	0	0	564	562	0	561	0	0	546	0	0	0	563	568	562	547	539	546	0	0	568	557	0	0	0	0	0	0	560	558	551	0	0	0	553	0	561	559	561	577	0	567	558	0	560	0	552	558	0	554	0	0	0	0	0	578	560	559	548	560	539	550	551	0	543	0	572	566	568	567	560	552	0	560	0	550	555	548	546	549	552	557	559	0	0	0	574	554	0	544	0	553	543	553	0	559	565	566	553	558	560	545	0	560	0	551	560	556	555	549	571	542	0	0	0	548	559	555	576	570	567	565	562	550	555	0	546	0	0	560	562	0	0	0	0	0	0	0	559	0	554	562	561	0	0	541	0	0	556	541	0	553	0	560	562	557	538	0	0	0	548	0	0	0	574	549	551	532	541	542	546	548	551	0	0	0	540	0	535	0	536	0	0	547	564	541	550	0	545	0	544	0	552	555	0	0	0	542	544	553	0	0	0	553	0	0	0	0	0	0	0	0	0	0	0	0	0	0	0	0	0	539	545	0	0	0	0	0	0	0	0	543	0	541	546	0	0	541	541	0	0	532	0	0	0	0	560	0	0	566	0	0	0	0	0	0	0	0	536	0	0	0	0	0	0	0	0	0	0	555	0	0	545	0	0	0	0	0	0	0	0	0	0	0	0	533	0	0	0	0	0	0	0	0	0	0	567	551	0	0	0	0	524	0	536	540	532	538	0	533	0	0	0	0	541	0	0	0	553	0	0	0	538	528	526	538	533	532	533	533	532	532	533	533	532	533	535	535	534	532	532	529	529	529	528	528	526	526	525	525	526	524	525	527	528	528	526	527	526	527	527	527	525	524	524	524	522	523	522	524	520	522	517	518	518	518	518	518	518	518	520	519	519	520	518	519	520	521	520	520	520	519	519	519	517	517	516	516	520	514	516	512	513	512	513	512	512	512	510	509	509	507	509	509	509	509	510	511	509	509	506	505	504	504	506	502	508	503	503	501	502	499	498	499	497	500	497	498	500	0	498	0	0	533	557	559	544	0	0	0	0	0	0	488	0	0	481	0	478	0	0	0	0	0	0	0	0	0	0	0	0	0	0	0	0	0	0	0	0	0	0	0	0	0	0	0	0	0	0	0	0	0	0	0	0	0	0	0	0	0	0	0	0	0	0	0	0	0	0	0	0	0	0	0	0	0	0	0	0	0	0	0	0	0	0	0	0	0	0	0	0	0	0	0	0	0
0	0	0	0	0	0	0	0	0	0	0	0	0	0	0	0	0	0	0	0	0	0	0	0	0	0	0	0	0	0	0	0	0	0	0	0	0	0	0	0	0	0	0	0	0	0	0	0	0	0	0	0	0	0	0	0	0	0	0	0	0	0	0	0	0	0	0	0	0	0	0	0	0	0	0	0	0	0	0	0	0	0	0	0	0	0	0	0	0	0	0	0	0	0	0	0	0	0	0	0	0	0	0	0	0	0	0	0	0	0	0	0	0	0	0	0	0	0	0	0	0	0	0	378	0	365	372	0	0	363	373	370	382	397	391	394	399	402	403	402	399	396	397	398	408	415	408	417	414	418	416	419	417	417	422	424	424	426	429	432	436	436	438	440	440	443	444	445	446	448	448	451	452	456	459	458	459	456	454	451	450	449	453	458	460	457	456	481	481	477	473	471	459	0	0	0	0	0	0	457	460	458	0	0	0	0	0	0	0	457	457	458	455	452	455	454	459	461	473	483	494	507	521	512	518	516	518	522	523	523	524	525	525	528	536	555	563	582	607	616	620	624	624	627	624	624	628	631	632	640	638	641	645	645	652	653	654	654	658	663	664	653	650	0	571	562	557	556	554	554	554	553	553	554	556	555	555	557	558	557	559	558	556	555	556	555	556	557	558	560	560	559	558	558	558	557	557	557	557	557	557	559	560	560	560	561	560	559	559	559	559	558	560	559	560	561	562	562	562	562	561	561	559	559	558	560	560	562	568	582	0	592	574	588	0	0	0	0	0	0	0	0	0	0	0	0	543	0	0	551	0	0	555	0	0	0	0	569	0	0	0	0	0	0	0	0	0	0	0	0	0	555	0	0	0	0	0	0	0	567	0	558	0	0	550	0	559	0	0	552	0	0	558	0	0	0	0	559	0	567	557	0	0	551	0	556	0	0	0	0	0	559	0	0	564	0	0	545	0	556	0	0	0	0	0	558	559	556	559	562	559	0	567	560	553	0	546	554	562	0	0	555	0	554	553	560	0	559	556	545	0	554	557	0	0	562	561	547	548	0	539	0	556	0	558	566	0	560	0	542	0	0	0	0	557	538	0	567	566	561	563	573	572	0	567	559	544	0	0	546	556	555	571	566	0	577	566	560	0	554	556	556	551	0	542	547	0	0	547	569	564	576	568	557	0	0	0	555	556	558	0	0	562	0	572	558	544	556	0	548	0	553	564	547	549	560	558	0	558	0	0	0	533	557	558	0	559	561	563	564	558	566	0	547	545	557	557	561	560	0	548	0	557	0	545	0	543	550	0	549	539	0	0	543	0	547	545	551	0	0	560	0	0	0	0	547	0	551	0	0	587	0	537	532	540	538	538	534	559	549	0	546	540	536	540	551	529	0	0	558	0	0	0	547	0	0	550	0	546	549	0	550	0	0	0	541	0	542	552	548	548	544	0	0	551	541	0	538	0	0	552	549	0	0	0	0	0	0	0	539	0	542	0	0	517	535	0	0	0	0	548	0	0	0	0	0	0	0	539	0	0	0	558	566	564	555	572	0	577	0	0	0	0	0	0	0	0	0	0	547	555	0	540	0	0	0	0	543	538	535	0	533	540	0	0	0	0	0	0	0	0	0	541	0	0	0	0	0	2730	0	0	0	0	0	0	0	0	0	553	0	543	0	0	544	0	0	534	0	0	536	0	0	0	0	0	0	0	0	0	0	0	0	533	533	533	531	534	533	533	532	532	533	533	534	534	533	533	532	531	532	531	530	528	530	529	528	526	528	525	525	527	528	529	529	529	527	527	527	526	525	525	524	523	523	524	523	522	521	520	519	521	521	521	520	520	518	519	519	519	519	519	520	521	521	522	520	521	521	523	521	520	518	520	520	520	521	520	520	515	515	514	513	514	514	514	511	509	512	508	512	510	509	507	510	509	510	512	511	510	510	506	506	503	504	503	503	500	498	501	503	501	496	493	496	500	503	501	0	508	520	548	0	566	570	554	0	510	0	500	0	495	488	478	476	0	0	0	0	0	0	0	0	0	0	0	0	0	0	0	0	0	0	0	0	0	0	0	0	0	0	0	0	0	0	0	0	0	0	0	0	0	0	0	0	0	0	0	0	0	0	0	0	0	0	0	0	0	0	0	0	0	0	0	0	0	0	0	0	0	0	0	0	0	0	0	0	0	0	0	0	0	0	0
0	0	0	0	0	0	0	0	0	0	0	0	0	0	0	0	0	0	0	0	0	0	0	0	0	0	0	0	0	0	0	0	0	0	0	0	0	0	0	0	0	0	0	0	0	0	0	0	0	0	0	0	0	0	0	0	0	0	0	0	0	0	0	0	0	0	0	0	0	0	0	0	0	0	0	0	0	0	0	0	0	0	0	0	0	0	0	0	0	0	0	0	0	0	0	0	0	0	0	0	0	0	0	0	0	0	0	0	0	0	0	0	0	0	0	357	0	0	362	0	367	0	357	371	0	373	370	367	0	360	371	379	388	388	393	392	394	397	399	399	403	400	401	403	405	411	413	416	413	416	415	418	416	418	421	420	425	425	431	434	435	437	438	440	441	444	444	446	447	448	449	452	453	455	457	458	456	453	451	448	449	449	453	454	461	452	462	0	0	484	0	0	0	458	0	0	0	449	469	456	0	0	0	0	486	0	0	458	465	457	455	452	454	451	454	455	455	0	476	0	495	511	510	521	518	520	519	521	527	526	524	526	528	529	539	0	575	592	603	612	617	624	620	624	624	629	628	628	633	637	636	639	644	646	651	651	649	651	646	653	649	654	632	0	568	561	559	556	555	555	555	555	554	555	556	555	556	558	558	558	560	559	558	557	557	554	556	557	559	560	562	559	559	559	559	558	558	558	557	557	557	559	560	562	563	563	563	561	560	561	560	560	560	560	561	562	563	564	563	563	561	562	560	560	559	560	560	563	572	579	574	0	583	573	0	0	0	0	0	0	0	0	0	0	0	0	549	546	0	0	0	548	544	0	0	0	557	0	0	0	0	0	0	0	0	0	0	0	0	0	0	0	563	0	0	0	0	0	0	576	0	570	551	550	0	0	550	0	0	546	0	0	0	556	552	0	0	560	0	558	551	0	0	552	0	558	568	0	0	0	0	568	555	0	0	548	0	0	0	0	0	0	564	0	0	559	557	0	0	0	0	0	0	560	0	551	548	551	0	0	0	0	0	550	556	556	0	0	0	548	549	0	0	559	568	563	572	560	0	0	565	561	551	0	571	561	550	567	0	0	541	538	553	0	0	548	556	544	565	575	561	0	557	569	563	564	548	0	543	0	542	547	556	556	556	561	560	556	556	552	0	555	0	554	547	555	552	553	556	552	560	564	559	0	0	561	0	554	544	0	0	0	0	0	556	562	553	544	555	0	559	554	554	558	556	0	541	0	551	549	0	544	541	0	0	565	567	561	549	558	553	544	551	560	0	0	565	560	560	0	568	0	542	546	0	0	547	544	540	560	548	540	0	0	542	0	548	540	0	0	0	0	0	561	550	548	538	0	0	0	567	0	541	533	533	534	0	548	0	548	0	555	0	543	542	541	0	0	561	0	0	0	0	534	0	539	538	0	550	550	558	0	0	552	545	535	559	555	553	549	0	541	554	0	0	0	0	554	0	0	0	534	0	0	0	0	0	0	0	536	535	542	0	0	0	0	539	0	543	0	0	0	0	565	0	548	0	0	0	0	0	558	0	0	563	0	574	0	0	0	542	0	0	0	0	0	0	0	0	0	0	547	0	0	0	0	0	0	0	534	0	533	0	0	0	0	0	0	0	521	532	0	0	0	0	0	0	0	0	0	0	0	555	561	0	555	556	552	0	544	0	0	0	0	0	0	0	0	0	0	0	0	547	0	0	0	546	0	536	0	0	519	531	0	539	536	534	538	536	537	535	533	534	533	534	536	536	533	535	532	534	531	531	529	529	530	527	527	525	526	527	528	526	526	527	526	527	526	527	526	526	526	524	525	524	523	522	522	522	521	521	523	522	521	520	520	518	520	520	521	520	520	522	521	524	525	526	524	525	522	520	519	520	521	521	521	519	518	515	518	516	516	517	517	513	514	512	512	510	512	511	510	510	510	509	511	512	514	510	510	505	507	505	506	503	504	503	502	502	503	503	503	497	496	498	496	500	506	515	0	557	556	0	563	551	0	0	0	0	0	493	482	485	476	0	477	0	0	0	0	0	0	0	0	0	0	0	0	0	0	0	0	0	0	0	0	0	0	0	0	0	0	0	0	0	0	0	0	0	0	0	0	0	0	0	0	0	0	0	0	0	0	0	0	0	0	0	0	0	0	0	0	0	0	0	0	0	0	0	0	0	0	0	0	0	0	0	0	0	0	0	0	0
0	0	0	0	0	0	0	0	0	0	0	0	0	0	0	0	0	0	0	0	0	0	0	0	0	0	0	0	0	0	0	0	0	0	0	0	0	0	0	0	0	0	0	0	0	0	0	0	0	0	0	0	0	0	0	0	0	0	0	0	0	0	0	0	0	0	0	0	0	0	0	0	0	0	0	0	0	0	0	0	0	0	0	0	0	0	0	0	0	0	0	0	0	0	0	0	0	0	0	0	0	0	0	0	0	0	0	0	0	0	0	0	0	0	0	0	0	0	365	362	0	0	359	0	0	377	371	363	364	368	365	0	386	392	395	396	398	402	404	404	405	400	401	405	404	410	413	415	413	416	413	417	415	422	419	422	426	428	432	432	434	439	439	440	441	444	445	446	447	448	448	449	451	455	459	456	458	452	449	446	449	447	454	462	460	0	468	468	0	0	0	0	0	458	458	460	450	456	461	465	470	0	0	0	494	482	0	0	0	0	0	457	453	450	454	455	460	464	0	506	510	516	516	523	517	516	521	523	525	529	529	529	531	536	545	555	595	0	604	611	619	621	622	623	623	625	626	634	632	632	639	637	640	647	638	647	639	640	642	634	639	641	627	594	567	560	558	556	555	557	558	558	556	557	557	555	556	558	559	557	559	557	557	557	557	555	556	557	558	560	561	559	559	559	560	559	559	559	559	558	559	560	561	563	563	564	564	563	562	563	562	561	561	561	561	562	563	564	564	564	561	563	560	560	559	560	559	560	566	583	0	0	581	0	572	0	0	562	0	0	0	0	0	0	0	559	560	550	0	0	0	0	0	0	0	0	0	559	0	547	545	0	0	0	0	0	559	0	557	0	548	567	0	562	568	567	0	0	0	566	0	0	0	0	0	0	0	0	0	544	539	0	547	0	555	0	560	0	553	569	0	0	0	548	543	561	0	0	547	557	0	556	0	546	0	549	0	0	0	0	0	555	563	574	0	559	558	556	0	0	0	0	569	0	0	0	0	0	552	547	554	0	547	0	0	555	554	551	548	549	558	0	571	0	546	0	0	557	0	0	0	566	0	551	549	545	542	552	565	0	556	545	0	525	534	0	545	551	555	557	0	558	565	571	562	560	551	545	543	0	562	554	555	551	559	0	0	559	552	551	550	551	549	559	542	554	547	537	0	571	550	553	0	0	567	555	567	559	560	0	0	548	556	0	0	0	554	542	549	0	559	546	551	552	552	541	552	547	0	555	552	0	535	545	554	561	552	562	550	566	546	0	554	545	556	554	558	0	561	557	555	560	564	560	537	550	0	542	0	553	543	0	544	0	0	547	555	556	554	551	0	0	558	0	553	0	535	548	0	0	0	0	544	539	527	0	0	548	0	547	540	541	544	544	0	537	0	0	559	556	546	545	541	0	550	0	0	0	0	547	545	545	550	0	0	541	549	0	0	0	534	540	0	0	0	0	0	0	0	0	0	0	0	0	0	0	0	0	0	528	0	0	549	0	0	0	0	0	0	547	551	555	0	0	0	0	575	0	0	563	0	571	571	568	0	555	0	567	553	0	543	0	0	0	0	0	0	0	0	534	0	0	531	0	0	0	0	0	0	526	0	0	0	516	518	0	0	0	0	0	0	0	0	554	542	543	0	537	0	0	0	0	0	0	0	558	553	556	0	542	550	0	0	0	0	0	0	0	0	0	0	0	0	0	0	0	0	0	0	0	0	0	0	0	529	536	538	539	537	537	536	533	533	534	533	534	535	534	536	535	532	531	531	530	530	530	529	530	528	530	528	527	527	527	527	525	528	528	528	528	527	528	526	527	524	525	521	523	522	522	524	525	523	523	522	522	521	521	522	520	519	520	521	525	526	523	525	524	522	521	520	520	520	520	522	522	520	518	519	518	517	517	516	516	515	514	513	512	509	513	509	512	508	511	509	510	512	516	513	512	508	507	505	506	504	504	504	504	503	504	504	500	500	498	494	511	505	510	508	539	552	0	0	567	564	557	534	0	503	492	491	484	483	0	482	0	0	0	470	0	0	0	0	0	0	0	0	0	0	0	0	0	0	0	0	0	0	0	0	0	0	0	0	0	0	0	0	0	0	0	0	0	0	0	0	0	0	0	0	0	0	0	0	0	0	0	0	0	0	0	0	0	0	0	0	0	0	0	0	0	0	0	0	0	0	0	0	0	0	0	0	0	0
0	0	0	0	0	0	0	0	0	0	0	0	0	0	0	0	0	0	0	0	0	0	0	0	0	0	0	0	0	0	0	0	0	0	0	0	0	0	0	0	0	0	0	0	0	0	0	0	0	0	0	0	0	0	0	0	0	0	0	0	0	0	0	0	0	0	0	0	0	0	0	0	0	0	0	0	0	0	0	0	0	0	0	0	0	0	0	0	0	0	0	0	0	0	0	0	0	0	0	0	0	0	0	0	0	0	0	0	0	0	0	0	370	368	372	0	0	366	364	0	0	363	0	357	360	369	373	366	0	364	371	372	387	389	394	397	402	395	403	404	403	406	407	408	408	410	0	414	414	415	414	415	420	418	422	423	427	431	432	434	436	437	439	441	443	445	446	447	449	449	449	450	453	455	459	457	454	451	451	449	450	456	454	454	465	467	456	478	0	0	0	0	0	0	0	0	460	454	452	490	0	476	481	481	488	0	0	475	0	0	454	452	452	453	452	455	462	468	469	0	507	516	520	522	522	524	521	523	525	527	530	532	533	537	0	574	593	597	613	610	613	619	620	626	624	624	625	623	628	628	629	636	632	636	632	627	623	620	611	614	614	606	603	580	567	562	559	557	557	558	559	560	557	558	558	557	557	559	559	558	559	559	558	559	557	557	557	558	558	560	561	560	560	560	562	562	562	562	561	559	559	561	562	563	564	565	564	563	563	564	563	562	563	562	562	563	563	564	563	563	562	563	562	562	560	560	561	565	563	562	0	563	578	572	574	569	0	572	0	555	0	0	0	550	552	559	0	0	0	0	0	551	0	0	0	0	0	548	0	0	530	0	0	0	0	573	0	0	0	0	557	546	559	0	0	574	0	0	560	0	0	559	0	0	544	550	0	0	0	0	535	551	0	556	560	0	0	558	0	0	0	563	0	554	555	565	0	0	0	0	0	552	0	547	0	563	561	589	0	0	0	0	0	571	573	0	0	0	554	560	0	0	0	564	0	557	0	545	536	540	0	544	545	546	0	564	552	549	0	533	551	552	0	559	0	0	0	0	0	0	0	577	572	0	0	0	0	0	551	544	0	0	0	0	0	0	539	0	554	0	567	558	561	550	564	559	0	544	544	0	561	0	551	540	0	540	550	551	549	553	551	544	556	562	565	569	548	553	545	0	544	0	0	554	0	557	556	561	0	556	549	0	550	0	555	555	555	554	556	548	558	555	555	549	549	0	554	554	555	0	562	553	0	547	558	564	576	541	559	548	0	544	551	0	555	568	560	0	0	563	561	548	0	0	551	552	0	0	0	557	0	0	548	0	565	0	568	0	569	549	551	0	554	549	0	550	545	540	554	0	554	0	0	532	539	546	539	0	543	554	534	0	0	538	0	0	539	536	539	544	539	545	0	546	544	0	545	546	0	0	558	552	568	0	0	557	0	0	0	0	547	0	532	0	0	0	0	0	0	0	0	0	0	0	0	0	0	0	0	0	0	540	0	550	0	0	0	0	0	558	0	554	0	0	0	0	0	562	0	569	0	0	0	557	557	561	0	0	0	0	0	0	0	0	0	0	0	0	0	540	0	0	537	0	0	0	534	0	0	0	0	0	0	531	534	528	0	0	0	0	0	0	548	0	0	0	0	0	0	0	0	0	0	0	0	0	0	0	553	546	0	0	0	0	0	0	0	0	0	0	550	0	537	541	0	0	0	0	0	0	0	521	0	534	0	0	539	538	538	538	536	535	533	533	534	534	537	537	538	535	535	532	531	532	531	530	534	532	531	531	528	527	526	526	525	526	529	528	529	528	527	529	525	528	524	524	523	525	523	525	523	526	524	525	524	525	524	526	522	523	522	520	520	521	525	526	526	525	525	522	520	521	521	521	520	519	516	517	516	519	518	520	516	517	515	514	514	513	511	515	513	511	511	510	508	512	514	514	512	514	509	507	505	505	507	507	506	504	504	504	502	503	498	500	501	505	512	506	506	0	556	559	567	0	561	548	539	535	0	0	489	476	478	479	0	477	0	474	0	0	2063	0	0	0	0	0	0	0	0	0	0	0	0	0	0	0	0	0	0	0	0	0	0	0	0	0	0	0	0	0	0	0	0	0	0	0	0	0	0	0	0	0	0	0	0	0	0	0	0	0	0	0	0	0	0	0	0	0	0	0	0	0	0	0	0	0	0	0	0	0	0	0	0
0	0	0	0	0	0	0	0	0	0	0	0	0	0	0	0	0	0	0	0	0	0	0	0	0	0	0	0	0	0	0	0	0	0	0	0	0	0	0	0	0	0	0	0	0	0	0	0	0	0	0	0	0	0	0	0	0	0	0	0	0	0	0	0	0	0	0	0	0	0	0	0	0	0	0	0	0	0	0	0	0	0	0	0	0	0	0	0	0	0	0	0	0	0	0	0	0	0	0	0	0	0	0	0	0	0	0	0	0	0	0	0	0	371	376	377	0	0	0	0	0	348	355	364	370	370	367	366	369	369	375	376	385	390	394	394	403	401	405	404	400	406	407	408	408	0	412	413	415	417	412	411	416	419	423	425	427	429	430	433	435	438	440	442	444	446	447	449	450	451	452	453	455	454	458	453	457	454	454	451	452	453	463	472	468	0	0	0	0	0	0	0	0	0	0	448	452	461	461	484	0	484	477	499	483	0	0	460	0	0	0	454	451	452	454	455	458	467	483	513	515	521	521	520	521	522	522	524	527	528	531	533	538	541	557	565	596	602	610	615	618	621	621	623	621	620	621	622	620	622	618	623	618	619	615	612	605	604	604	601	597	593	583	578	568	563	559	558	559	559	560	561	559	558	557	556	558	558	559	557	559	559	559	559	559	559	558	560	559	560	560	560	560	561	561	562	562	562	562	561	561	562	563	564	565	565	565	565	565	566	565	564	565	564	564	563	564	563	562	563	562	563	561	561	559	559	557	561	571	567	0	585	601	579	0	0	0	572	0	0	0	0	0	0	0	564	0	557	0	0	0	0	0	0	0	554	0	0	558	0	0	556	0	0	0	581	0	570	565	553	549	0	565	563	0	562	0	569	0	564	0	565	0	0	0	0	0	0	550	544	0	0	0	0	0	0	565	561	558	0	0	0	559	560	0	543	543	0	0	0	564	0	0	0	0	551	0	0	569	0	0	0	0	0	0	569	0	0	557	554	560	0	0	563	561	556	541	545	543	535	0	0	555	0	0	552	549	553	549	543	544	564	555	556	548	0	544	0	0	0	568	0	555	546	528	0	0	0	0	0	0	0	0	0	0	0	0	0	552	557	544	552	552	564	556	553	557	0	553	0	0	555	552	0	0	545	546	546	543	544	548	550	539	550	560	0	561	533	0	0	537	0	0	560	0	561	563	550	560	0	0	0	549	0	546	562	558	561	0	548	558	0	556	555	554	554	559	554	0	563	557	559	560	0	555	552	0	556	0	560	540	551	0	549	561	556	563	564	566	559	567	563	551	551	547	558	554	564	549	0	555	0	548	0	556	568	0	566	560	0	560	552	552	0	0	0	557	0	546	543	557	0	0	0	547	536	0	548	537	557	0	0	532	536	536	0	0	0	538	0	537	0	0	547	556	0	548	535	551	0	558	558	0	0	552	0	0	0	538	0	0	524	534	0	551	0	0	0	534	0	0	0	0	536	0	0	0	0	0	0	0	0	0	570	0	0	0	0	0	560	563	0	543	0	548	0	565	0	0	0	0	0	0	556	550	549	554	0	0	0	0	0	0	0	0	0	0	0	541	0	546	0	520	0	524	528	533	0	0	0	0	0	0	0	0	0	0	549	554	0	0	0	0	0	0	539	0	0	0	0	0	0	0	549	0	0	0	0	0	0	0	0	0	0	0	0	0	0	0	0	0	0	533	0	0	0	0	525	0	0	0	0	0	549	549	540	539	538	538	539	537	536	535	533	532	534	536	537	537	537	535	533	532	533	533	534	534	536	534	534	532	530	527	527	527	528	530	528	529	531	531	529	527	528	525	527	523	527	525	527	525	528	525	526	525	524	525	524	523	524	522	522	523	520	524	526	527	524	522	524	519	522	522	521	520	520	520	518	517	519	517	517	517	518	515	518	516	514	513	512	512	513	510	513	511	511	513	514	513	512	509	507	506	505	506	506	507	506	505	502	497	499	498	500	503	510	508	514	0	538	0	561	559	562	561	0	552	512	504	491	492	488	495	0	473	473	479	468	0	0	0	0	0	0	0	0	0	0	0	0	0	0	0	0	0	0	0	0	0	0	0	0	0	0	0	0	0	0	0	0	0	0	0	0	0	0	0	0	0	0	0	0	0	0	0	0	0	0	0	0	0	0	0	0	0	0	0	0	0	0	0	0	0	0	0	0	0	0	0	0	0	0	0
0	0	0	0	0	0	0	0	0	0	0	0	0	0	0	0	0	0	0	0	0	0	0	0	0	0	0	0	0	0	0	0	0	0	0	0	0	0	0	0	0	0	0	0	0	0	0	0	0	0	0	0	0	0	0	0	0	0	0	0	0	0	0	0	0	0	0	0	0	0	0	0	0	0	0	0	0	0	0	0	0	0	0	0	0	0	0	0	0	0	0	0	0	0	0	0	0	0	0	0	0	0	0	0	0	0	0	0	0	0	0	363	0	366	371	369	0	0	0	369	0	353	357	364	359	367	365	365	367	364	377	378	385	392	389	395	395	401	406	403	407	404	405	405	407	408	411	415	418	419	419	416	419	419	423	427	427	428	430	434	435	439	442	444	444	446	448	449	451	453	454	455	457	457	455	454	458	455	456	453	460	456	464	470	474	459	470	0	0	0	0	0	0	0	0	0	446	0	0	0	472	0	483	480	0	0	457	462	464	448	457	453	453	452	454	456	462	0	491	0	506	0	519	525	525	525	526	524	523	525	531	533	543	543	560	573	607	608	611	616	616	622	623	624	620	619	610	608	611	607	608	605	607	606	603	603	597	598	593	595	591	589	581	575	569	563	559	559	559	560	561	561	559	558	559	558	559	560	560	559	559	559	558	558	559	560	560	561	561	562	561	562	562	563	563	564	563	564	564	562	563	564	565	565	565	566	565	565	565	566	566	566	566	566	565	565	565	564	564	563	563	564	564	562	561	562	557	561	561	0	0	566	0	0	0	560	0	546	542	0	0	0	546	0	0	0	0	564	562	554	555	0	547	0	0	0	545	0	0	590	548	0	0	0	0	0	0	558	0	0	549	562	0	0	557	555	567	0	0	563	0	0	550	0	0	0	546	0	559	0	549	0	0	563	0	555	0	0	0	564	561	0	0	547	558	0	0	554	0	0	0	572	567	0	0	0	555	566	0	0	0	0	0	566	0	569	0	0	552	564	0	0	0	0	541	542	541	538	0	0	543	546	0	0	0	557	551	554	550	0	0	557	556	556	0	541	546	550	0	573	0	568	554	562	552	535	535	0	0	557	0	560	563	0	0	0	0	0	0	547	553	0	540	0	550	0	0	0	0	544	555	0	546	553	0	548	554	538	0	533	543	552	551	561	561	567	562	543	539	535	539	535	0	574	556	559	556	0	0	563	550	557	548	552	0	558	561	0	555	549	558	550	551	554	560	548	562	553	555	561	0	547	556	549	550	0	573	571	573	0	567	0	548	571	556	554	570	571	565	556	557	547	541	532	543	551	0	555	557	564	531	0	0	0	567	0	569	0	578	556	552	0	558	561	564	557	559	546	542	0	550	558	0	0	555	562	554	553	552	532	0	526	0	538	544	530	531	0	0	516	526	532	531	532	551	558	558	561	0	556	558	0	0	559	558	0	561	0	555	0	0	0	541	0	0	0	0	548	551	0	0	0	551	0	0	0	0	0	0	0	0	0	0	0	572	0	0	0	0	559	0	544	539	540	538	0	0	0	0	0	0	0	0	554	0	549	0	547	0	0	551	0	0	0	0	0	0	0	0	0	0	0	0	0	0	0	0	0	0	0	0	0	0	0	0	0	547	549	551	0	0	0	0	0	0	0	0	0	0	0	0	537	0	0	0	0	0	0	0	0	0	0	0	0	0	0	538	0	0	0	0	0	0	0	0	0	0	0	0	0	0	538	0	0	0	0	539	538	538	537	536	535	535	533	533	534	535	535	537	535	534	533	532	533	535	534	534	537	534	535	532	530	529	530	529	529	531	530	532	531	532	531	528	529	526	525	526	527	526	526	525	527	524	525	525	525	525	526	527	525	525	523	524	520	523	522	526	527	523	523	522	521	522	521	520	519	518	516	517	519	518	517	517	515	516	517	517	515	513	515	513	513	511	510	514	512	512	514	513	511	511	507	506	507	509	508	508	507	502	501	499	498	498	502	501	508	509	503	0	0	549	563	563	558	572	553	551	529	526	0	491	488	497	481	493	475	481	476	0	0	0	0	0	0	0	0	0	0	0	0	0	0	0	0	0	0	0	0	0	0	0	0	0	0	0	0	0	0	0	0	0	0	0	0	0	0	0	0	0	0	0	0	0	0	0	0	0	0	0	0	0	0	0	0	0	0	0	0	0	0	0	0	0	0	0	0	0	0	0	0	0	0	0
0	0	0	0	0	0	0	0	0	0	0	0	0	0	0	0	0	0	0	0	0	0	0	0	0	0	0	0	0	0	0	0	0	0	0	0	0	0	0	0	0	0	0	0	0	0	0	0	0	0	0	0	0	0	0	0	0	0	0	0	0	0	0	0	0	0	0	0	0	0	0	0	0	0	0	0	0	0	0	0	0	0	0	0	0	0	0	0	0	0	0	0	0	0	0	0	0	0	0	0	0	0	0	0	0	0	0	0	0	0	0	0	0	0	0	0	0	0	0	350	0	345	354	359	370	366	368	368	366	373	375	387	389	388	393	396	400	398	400	405	402	402	409	407	410	410	415	416	419	415	420	417	419	423	425	427	427	428	429	432	435	439	441	443	445	446	447	450	451	455	456	458	457	458	456	456	457	457	459	460	458	458	463	471	488	459	0	0	0	0	0	0	0	0	0	0	459	467	465	0	0	0	0	0	0	464	461	460	452	457	456	452	455	452	454	458	463	0	488	516	518	520	518	520	525	527	527	525	528	524	529	534	538	551	560	588	599	608	614	616	620	621	620	623	616	612	605	602	599	599	598	597	598	598	595	590	592	593	590	592	588	585	579	575	569	564	561	559	559	560	560	560	559	558	559	558	560	560	560	558	558	558	559	558	559	560	561	561	561	561	561	562	562	563	564	565	565	566	566	565	566	565	564	563	564	565	566	566	567	567	567	566	566	567	567	567	566	565	564	563	563	562	563	561	561	560	561	566	564	568	571	568	579	0	0	0	0	0	554	0	552	0	0	0	0	0	0	568	0	0	567	0	0	546	560	552	0	0	0	0	577	0	581	0	0	0	0	0	0	563	0	555	0	0	0	0	0	0	0	559	0	0	0	0	0	552	539	568	566	556	0	567	0	568	0	564	0	0	553	0	0	0	0	0	0	0	0	561	0	0	551	551	0	0	0	0	0	550	0	557	0	0	0	573	545	563	561	558	561	0	0	0	560	0	551	554	547	554	0	546	0	542	552	0	0	0	0	0	0	0	0	0	0	553	550	547	558	0	0	0	0	562	558	564	538	534	537	0	543	0	0	0	571	0	553	548	0	551	550	563	543	545	547	548	551	539	546	545	555	0	567	556	547	547	0	545	554	0	526	538	535	552	561	556	567	560	568	563	559	536	0	549	540	556	0	560	549	568	559	0	558	553	547	0	0	568	573	0	560	565	546	539	549	0	554	558	0	552	544	556	555	560	551	554	0	562	568	561	0	569	549	567	560	568	0	0	567	562	565	565	551	559	547	547	545	552	551	555	0	0	559	561	552	559	561	566	564	0	0	564	0	562	559	0	0	0	0	0	0	553	0	568	566	551	565	555	554	551	544	0	531	536	0	0	541	543	534	528	529	0	527	531	534	0	0	0	0	554	554	555	552	558	0	555	0	0	0	543	0	543	0	0	0	0	560	553	549	0	541	0	551	0	0	0	0	0	0	0	0	0	0	550	561	0	0	0	0	0	0	0	534	545	544	543	536	0	547	554	571	0	0	0	0	0	0	0	0	0	553	0	0	0	0	0	0	0	0	553	0	0	0	0	0	0	0	507	0	0	0	0	0	542	0	0	0	542	542	0	0	0	0	0	0	0	0	0	0	0	533	0	0	0	0	0	0	524	0	0	0	0	0	0	0	0	0	0	0	536	0	0	0	0	0	0	0	0	0	0	0	0	0	0	0	0	0	0	539	534	536	534	533	533	534	534	534	534	535	535	535	536	534	535	535	536	535	536	537	537	536	538	535	534	532	533	531	531	532	533	534	534	534	532	530	529	527	528	526	527	526	527	527	526	529	527	527	526	526	525	527	527	528	526	525	524	524	526	526	525	525	522	522	522	522	522	522	519	521	519	519	516	517	515	515	517	516	517	517	514	512	512	512	513	514	514	512	511	512	511	511	510	510	508	507	507	508	508	509	507	506	502	503	498	502	499	505	501	508	526	517	0	558	567	0	0	565	562	558	543	513	504	508	502	494	487	481	476	0	0	475	0	0	0	0	0	0	0	0	0	0	0	0	0	0	0	0	0	0	0	0	0	0	0	0	0	0	0	0	0	0	0	0	0	0	0	0	0	0	0	0	0	0	0	0	0	0	0	0	0	0	0	0	0	0	0	0	0	0	0	0	0	0	0	0	0	0	0	0	0	0	0	0	0	0
0	0	0	0	0	0	0	0	0	0	0	0	0	0	0	0	0	0	0	0	0	0	0	0	0	0	0	0	0	0	0	0	0	0	0	0	0	0	0	0	0	0	0	0	0	0	0	0	0	0	0	0	0	0	0	0	0	0	0	0	0	0	0	0	0	0	0	0	0	0	0	0	0	0	0	0	0	0	0	0	0	0	0	0	0	0	0	0	0	0	0	0	0	0	0	0	0	0	0	0	0	0	0	0	0	0	0	0	0	350	0	0	0	0	367	363	374	0	0	0	0	358	0	370	370	369	366	371	372	374	386	384	387	396	391	397	396	402	401	402	411	407	406	407	409	413	418	416	422	422	426	423	425	426	427	430	429	431	430	433	437	440	440	443	445	447	448	451	451	456	456	459	457	456	458	453	456	456	459	460	462	469	474	473	459	489	0	0	0	0	0	0	0	0	0	0	0	460	467	473	0	0	0	0	0	460	461	453	460	453	455	451	451	452	458	464	0	0	512	505	515	519	520	521	528	530	532	528	527	528	528	535	543	554	574	592	605	615	615	618	618	622	623	624	614	609	601	597	594	593	593	593	595	592	590	590	589	589	588	589	586	584	579	574	570	565	561	559	559	560	561	562	562	561	560	559	561	560	561	560	562	561	560	560	562	561	561	562	562	562	561	562	563	565	566	567	566	566	566	566	566	566	565	564	566	565	566	566	567	567	566	567	567	569	569	569	568	566	566	564	564	562	563	562	562	563	563	564	0	0	564	0	0	547	0	0	0	546	546	0	551	555	557	0	0	0	564	566	0	0	0	0	0	0	558	0	0	0	0	0	585	585	581	0	0	0	0	573	0	566	561	545	0	0	0	0	0	0	0	0	0	0	0	0	0	0	0	554	0	0	583	565	556	571	569	0	0	0	0	0	0	0	554	0	559	566	570	0	0	0	0	552	553	564	568	565	555	0	554	0	557	556	0	547	559	0	565	562	570	565	0	564	558	0	549	544	0	551	544	545	0	546	0	562	0	0	559	577	0	0	0	0	0	556	550	0	0	0	556	0	561	564	0	557	549	545	551	536	542	0	555	0	0	0	0	551	559	558	564	559	550	549	541	541	536	0	0	555	0	0	0	568	0	0	0	550	542	0	548	0	548	0	560	563	555	566	559	554	0	549	554	553	557	564	556	570	556	570	568	0	549	554	550	571	0	564	559	0	555	0	550	537	0	561	545	558	0	555	552	555	549	556	558	558	553	560	575	575	0	573	569	566	573	572	567	572	0	565	0	0	0	546	541	546	551	0	549	563	562	554	554	0	0	561	565	574	556	0	562	559	559	0	561	562	0	552	560	0	0	565	0	564	0	561	0	568	565	548	0	547	541	544	544	549	553	536	528	0	531	532	538	536	535	548	0	0	561	0	554	0	555	0	560	0	0	559	566	0	0	539	0	0	559	540	0	549	0	0	0	0	552	554	0	0	0	570	0	0	0	0	558	0	0	556	562	0	0	562	0	0	536	539	539	543	541	548	0	0	0	0	0	0	0	0	0	0	0	548	0	550	0	0	0	0	0	536	0	0	0	0	548	547	0	0	0	0	0	0	0	0	0	0	0	0	0	547	0	559	0	0	0	0	0	0	0	0	0	0	0	539	0	0	0	0	0	0	0	0	0	0	0	0	0	0	561	0	0	0	0	0	0	528	0	0	0	0	0	0	0	0	539	550	0	0	0	538	538	536	536	534	535	534	536	534	535	534	535	533	534	535	535	534	534	536	535	534	535	537	536	537	533	533	532	535	534	534	536	534	533	533	533	531	531	530	530	530	531	527	527	527	527	527	529	529	529	528	529	528	529	527	528	524	524	525	526	526	526	526	527	525	522	522	523	523	523	521	522	520	521	519	518	515	517	515	517	516	516	513	511	512	513	512	514	515	516	515	514	513	511	510	510	510	510	509	510	510	510	509	508	504	505	503	503	500	504	504	506	508	0	0	563	566	566	570	0	569	561	543	535	510	506	496	0	481	489	483	487	476	481	0	0	0	0	0	0	0	0	0	0	0	0	0	0	0	0	0	0	0	0	0	0	0	0	0	0	0	0	0	0	0	0	0	0	0	0	0	0	0	0	0	0	0	0	0	0	0	0	0	0	0	0	0	0	0	0	0	0	0	0	0	0	0	0	0	0	0	0	0	0	0	0	0	0
0	0	0	0	0	0	0	0	0	0	0	0	0	0	0	0	0	0	0	0	0	0	0	0	0	0	0	0	0	0	0	0	0	0	0	0	0	0	0	0	0	0	0	0	0	0	0	0	0	0	0	0	0	0	0	0	0	0	0	0	0	0	0	0	0	0	0	0	0	0	0	0	0	0	0	0	0	0	0	0	0	0	0	0	0	0	0	0	0	0	0	0	0	0	0	0	0	0	0	0	0	0	0	0	0	0	0	0	0	0	364	0	0	0	0	0	0	366	0	355	0	0	0	366	366	372	370	370	374	381	383	388	391	394	398	397	402	401	405	406	407	413	413	411	415	415	418	416	421	420	422	425	429	429	431	432	431	432	434	435	437	439	443	443	446	448	450	451	452	455	456	458	459	458	458	455	456	455	459	461	470	465	463	477	464	463	0	0	0	0	0	0	0	0	0	0	450	0	493	0	0	0	515	503	0	0	459	456	455	453	452	451	450	459	454	465	470	0	500	513	519	519	523	523	523	529	530	535	532	529	530	534	536	564	586	598	607	611	615	617	617	620	621	617	609	605	598	595	592	591	591	590	591	589	590	586	587	588	588	587	587	584	579	575	570	565	562	561	559	559	560	562	562	560	560	558	559	558	559	559	560	560	561	561	561	561	561	563	563	563	562	563	564	565	565	566	566	567	566	566	567	566	565	564	566	566	568	568	569	568	568	568	568	569	570	570	569	568	567	565	565	564	563	561	563	562	561	568	563	0	0	0	551	0	545	0	0	0	546	544	0	547	0	549	550	0	573	0	565	0	0	552	553	0	551	0	0	0	0	568	570	0	0	574	0	0	0	574	0	0	0	0	0	0	0	0	562	0	0	0	0	0	0	0	0	0	0	0	0	552	0	556	567	568	0	0	0	0	0	0	0	555	0	0	560	0	0	0	573	0	0	0	549	555	553	0	0	0	0	562	0	0	533	0	562	559	560	565	555	0	0	0	555	0	0	557	0	0	0	551	557	562	0	554	0	563	0	0	0	0	561	0	552	557	563	554	550	565	565	564	560	555	555	567	541	531	0	544	545	551	566	0	558	556	0	553	560	0	564	565	553	567	549	544	0	549	554	0	567	556	558	578	551	0	0	569	0	0	542	0	0	0	561	550	560	559	564	563	552	551	0	559	554	553	548	554	554	570	0	0	545	552	552	553	563	0	0	0	551	553	545	0	0	566	565	0	552	550	546	0	550	554	0	557	0	567	568	0	0	572	562	565	566	576	575	0	566	569	0	559	0	557	548	562	0	560	554	552	0	0	561	0	555	561	561	549	554	560	0	0	0	0	560	0	0	558	0	0	547	565	563	0	0	556	560	564	565	0	552	0	548	551	548	0	562	0	561	0	539	541	544	554	554	0	555	556	553	0	556	0	0	0	0	548	549	0	544	543	558	0	544	0	559	0	0	550	0	0	0	0	0	555	0	569	578	566	0	0	0	0	0	0	0	547	556	0	0	0	0	0	0	0	0	547	0	0	0	0	564	0	0	0	0	0	0	0	0	556	538	0	0	0	531	0	0	0	553	0	536	0	545	542	0	0	0	0	520	0	0	0	0	0	0	0	0	550	0	562	560	0	0	0	0	0	0	0	0	0	543	0	0	0	0	0	0	0	0	0	541	0	0	0	0	0	553	0	0	0	0	0	0	0	0	0	0	0	0	0	0	0	0	0	546	0	0	0	543	539	535	534	533	533	534	534	533	535	534	536	536	535	536	536	536	536	536	534	538	536	535	537	535	534	532	534	533	535	536	536	535	535	534	531	532	533	534	533	532	529	528	527	527	529	529	530	530	528	529	528	527	527	526	526	526	526	527	528	529	528	525	525	523	521	522	522	524	524	524	522	520	519	518	517	517	516	518	518	516	514	513	512	514	515	516	516	516	515	514	512	512	510	512	514	512	513	513	511	512	511	510	507	507	501	505	504	503	505	508	508	0	0	575	574	574	571	570	564	569	0	0	516	508	0	0	0	0	0	490	482	482	0	480	0	0	0	0	0	0	0	0	0	0	0	0	0	0	0	0	0	0	0	0	0	0	0	0	0	0	0	0	0	0	0	0	0	0	0	0	0	0	0	0	0	0	0	0	0	0	0	0	0	0	0	0	0	0	0	0	0	0	0	0	0	0	0	0	0	0	0	0	0	0	0	0
0	0	0	0	0	0	0	0	0	0	0	0	0	0	0	0	0	0	0	0	0	0	0	0	0	0	0	0	0	0	0	0	0	0	0	0	0	0	0	0	0	0	0	0	0	0	0	0	0	0	0	0	0	0	0	0	0	0	0	0	0	0	0	0	0	0	0	0	0	0	0	0	0	0	0	0	0	0	0	0	0	0	0	0	0	0	0	0	0	0	0	0	0	0	0	0	0	0	0	0	0	0	0	0	0	0	0	0	348	355	364	0	0	0	367	346	0	361	0	366	365	363	364	366	373	368	370	372	376	381	384	389	396	392	400	395	402	403	406	409	411	415	413	414	416	416	420	418	425	421	429	428	432	433	433	434	434	436	436	438	439	440	441	444	446	447	449	453	452	455	454	455	456	458	455	453	454	454	456	460	459	468	471	465	473	480	463	0	0	0	0	0	0	0	0	0	0	0	0	0	0	503	0	0	473	465	461	457	457	455	455	453	452	460	462	479	0	501	512	517	520	521	523	523	526	526	538	530	538	534	535	544	554	568	581	597	609	617	614	621	621	620	618	614	608	603	596	594	591	591	590	589	589	588	588	586	587	587	587	586	585	582	578	573	570	565	562	561	560	561	562	563	564	562	562	559	560	559	561	561	561	561	562	560	560	562	561	562	562	564	562	564	564	566	567	568	567	568	567	566	568	566	567	566	567	568	569	569	569	568	568	568	568	569	570	570	568	568	568	566	565	565	565	564	565	565	0	0	0	0	0	0	0	0	0	0	543	546	545	0	0	0	0	0	0	0	567	574	0	0	580	567	0	561	562	0	0	566	0	0	0	0	0	0	0	570	575	0	0	568	0	0	0	0	0	0	0	0	0	0	0	0	0	0	0	0	0	0	0	0	0	0	0	0	0	560	552	0	560	0	0	556	560	0	0	546	0	574	0	562	557	560	548	551	545	555	552	562	0	556	546	0	0	549	578	564	557	0	0	0	0	0	559	555	0	570	0	0	554	564	551	539	0	552	0	552	569	558	560	0	548	548	557	0	550	549	556	558	0	567	568	0	0	543	554	545	530	555	534	0	0	0	546	0	548	0	0	0	561	0	564	551	548	550	553	559	0	553	556	550	0	0	573	0	0	0	547	557	0	555	551	568	562	0	0	565	551	565	557	563	569	558	562	546	556	562	557	565	550	555	548	0	549	0	0	0	0	0	0	0	539	550	0	551	0	558	555	0	0	0	0	0	563	556	0	563	570	0	578	566	0	559	573	571	569	569	0	0	0	569	0	544	0	557	0	557	560	552	0	546	557	557	560	557	0	554	0	557	0	0	0	559	0	0	0	558	0	564	548	563	560	0	555	551	0	0	554	0	0	542	553	560	574	561	556	558	555	555	0	546	0	551	549	0	556	545	557	552	547	554	0	0	543	0	566	560	558	0	0	0	0	0	0	0	0	0	0	0	0	0	0	0	567	564	0	0	555	0	0	0	543	542	532	0	543	546	0	0	554	0	0	0	0	552	561	0	558	0	551	567	553	0	558	555	0	546	557	553	0	0	0	0	547	0	551	556	0	0	548	0	543	0	0	0	0	544	534	0	525	0	0	0	0	0	0	545	0	569	0	0	0	542	0	0	0	0	0	0	0	0	0	0	534	0	0	0	552	0	545	552	548	0	0	0	0	0	0	0	0	0	0	0	0	0	0	0	0	0	0	0	0	543	0	0	0	535	536	532	536	536	534	534	536	535	534	535	535	537	535	535	536	535	535	534	534	534	535	537	536	537	535	533	533	534	534	536	537	537	536	533	531	531	531	534	535	535	533	530	529	528	527	529	530	531	531	532	532	531	530	527	527	526	527	528	528	530	530	530	527	526	525	523	523	524	523	524	525	525	523	522	522	519	520	519	519	517	517	516	516	516	517	518	518	519	520	519	516	514	512	515	515	516	515	515	515	514	515	514	515	509	509	505	505	506	507	507	506	511	528	559	568	575	570	575	574	570	559	563	0	513	0	496	487	485	0	487	484	485	477	0	0	0	0	0	0	0	0	0	0	0	0	0	0	0	0	0	0	0	0	0	0	0	0	0	0	0	0	0	0	0	0	0	0	0	0	0	0	0	0	0	0	0	0	0	0	0	0	0	0	0	0	0	0	0	0	0	0	0	0	0	0	0	0	0	0	0	0	0	0	0	0	0	0
0	0	0	0	0	0	0	0	0	0	0	0	0	0	0	0	0	0	0	0	0	0	0	0	0	0	0	0	0	0	0	0	0	0	0	0	0	0	0	0	0	0	0	0	0	0	0	0	0	0	0	0	0	0	0	0	0	0	0	0	0	0	0	0	0	0	0	0	0	0	0	0	0	0	0	0	0	0	0	0	0	0	0	0	0	0	0	0	0	0	0	0	0	0	0	0	0	0	0	0	0	0	0	0	0	0	0	0	0	354	0	369	357	354	0	0	371	358	0	368	364	363	365	366	365	367	369	372	377	380	386	390	395	397	401	400	404	403	406	410	414	408	416	414	418	415	420	419	421	419	429	425	434	434	434	434	436	437	438	438	440	439	443	445	448	448	451	451	453	454	454	455	453	455	455	455	455	452	454	455	464	462	0	469	463	482	483	0	0	0	0	0	0	0	0	0	0	0	0	0	511	0	503	472	469	460	459	456	456	456	453	455	458	465	467	0	491	511	0	512	517	523	525	526	527	529	528	537	537	542	534	538	548	0	598	604	610	614	618	623	622	621	616	612	601	598	594	592	590	589	589	587	588	588	588	587	588	585	588	586	586	582	579	575	570	566	562	562	560	560	561	562	562	564	561	561	560	560	562	563	564	565	564	563	563	563	562	563	562	564	563	564	565	565	567	567	567	567	567	566	567	567	567	567	569	568	570	570	570	569	570	569	569	569	570	569	569	568	569	567	567	567	567	566	566	566	565	565	0	554	541	0	0	557	0	549	549	549	0	0	550	551	538	553	0	561	0	0	0	560	582	561	571	0	0	558	0	0	0	564	564	0	0	0	0	0	0	0	0	570	564	0	0	545	0	0	0	0	0	0	0	0	0	552	0	0	0	564	570	0	552	0	552	562	0	0	559	563	558	0	0	0	0	0	553	542	555	555	560	578	0	0	554	562	556	557	0	0	558	561	0	0	553	0	0	567	0	0	0	0	0	0	0	554	578	547	0	0	558	0	555	0	552	560	562	561	552	544	572	554	556	546	545	545	542	556	554	564	0	572	0	0	0	551	538	0	540	0	550	565	0	0	0	571	0	0	553	561	0	0	559	550	562	560	560	0	557	0	542	534	535	549	556	0	549	0	565	0	564	564	553	547	555	554	561	549	562	543	554	552	564	557	536	0	538	556	548	563	546	548	537	533	551	546	0	0	551	0	550	543	539	553	561	578	566	572	559	0	0	0	0	0	554	0	559	551	0	565	0	554	534	0	551	569	582	564	562	572	0	568	561	553	558	561	558	555	556	550	555	539	0	0	569	556	552	0	556	0	549	552	0	0	560	561	547	0	549	547	562	0	0	544	554	0	536	540	554	554	565	0	0	568	554	0	0	551	557	559	0	545	547	555	0	0	0	558	549	537	535	540	544	0	557	0	552	0	577	0	0	0	0	0	0	0	0	0	0	0	0	0	0	567	0	562	556	551	546	543	0	531	537	0	0	533	544	545	0	0	561	547	0	0	535	557	0	567	0	0	0	551	548	545	0	549	552	553	563	558	0	0	0	547	0	0	556	557	0	551	0	0	0	0	536	0	0	0	0	0	524	0	0	523	519	0	0	0	0	0	0	0	0	0	540	524	0	0	0	0	544	558	0	0	0	0	0	0	557	560	0	563	0	0	0	0	0	0	0	0	0	0	0	0	0	0	0	0	0	0	564	559	0	0	0	0	521	0	537	541	537	536	535	536	536	535	534	536	536	538	538	539	535	535	534	536	536	535	534	537	536	537	535	536	534	534	535	536	537	537	535	534	532	532	533	535	536	536	535	532	529	530	529	530	531	533	533	533	534	532	531	528	527	526	526	528	528	530	528	527	527	526	525	524	523	527	526	525	527	526	524	523	523	523	523	523	521	520	521	520	520	521	520	520	521	520	520	517	517	516	516	517	517	517	516	516	517	517	517	517	515	512	510	507	507	508	510	510	510	516	536	552	566	580	580	575	572	563	566	556	0	531	0	499	0	487	487	0	0	0	491	0	482	0	0	0	0	0	0	0	0	0	0	0	0	0	0	0	0	0	0	0	0	0	0	0	0	0	0	0	0	0	0	0	0	0	0	0	0	0	0	0	0	0	0	0	0	0	0	0	0	0	0	0	0	0	0	0	0	0	0	0	0	0	0	0	0	0	0	0	0	0	0	0	0
0	0	0	0	0	0	0	0	0	0	0	0	0	0	0	0	0	0	0	0	0	0	0	0	0	0	0	0	0	0	0	0	0	0	0	0	0	0	0	0	0	0	0	0	0	0	0	0	0	0	0	0	0	0	0	0	0	0	0	0	0	0	0	0	0	0	0	0	0	0	0	0	0	0	0	0	0	0	0	0	0	0	0	0	0	0	0	0	0	0	0	0	0	0	0	0	0	0	0	0	0	0	0	0	0	0	359	337	0	350	0	0	0	0	358	360	369	363	371	0	0	364	364	367	365	368	367	373	380	382	389	390	396	396	401	402	403	405	408	405	411	410	415	411	414	416	420	418	422	424	426	431	435	432	436	436	438	439	440	440	440	443	443	445	448	449	451	452	455	456	454	455	453	453	452	453	452	454	455	450	462	466	467	476	470	468	465	464	0	0	0	0	0	0	0	0	0	473	496	0	0	0	0	0	469	472	459	460	455	455	454	458	459	464	468	484	0	509	0	516	524	523	529	526	531	528	531	535	537	539	542	548	560	590	604	608	613	615	623	625	623	624	614	608	596	594	590	591	589	589	587	586	586	586	586	586	588	588	588	586	585	581	579	574	571	567	564	563	562	563	562	564	565	565	564	562	562	562	563	565	566	567	565	566	563	563	563	563	564	565	565	564	565	565	565	566	566	566	566	565	566	567	569	569	571	570	570	569	570	569	570	570	570	569	570	569	568	568	568	568	569	569	569	569	570	568	0	554	0	553	564	558	0	561	557	0	0	553	0	0	0	550	0	0	0	0	0	0	0	0	577	566	0	0	0	0	0	0	0	560	0	0	0	565	0	0	571	0	552	564	558	0	0	0	0	0	575	593	0	0	579	0	557	0	573	0	0	0	0	0	0	537	545	551	0	557	541	552	550	0	0	0	554	553	542	552	568	0	0	572	566	580	563	575	569	568	548	556	550	0	561	561	563	0	0	566	567	0	0	0	0	0	0	561	0	0	0	0	558	547	542	533	556	0	566	549	0	545	554	551	540	552	539	544	538	551	0	0	0	0	0	0	553	0	534	0	556	559	552	569	0	0	552	0	557	568	555	559	564	557	556	561	559	550	568	568	552	0	545	553	545	553	0	569	569	0	552	558	554	558	554	545	541	0	553	551	556	0	547	541	571	561	547	546	548	561	558	0	554	549	531	527	0	539	541	561	0	558	0	542	545	545	550	563	561	564	560	0	552	0	561	0	564	0	0	0	0	559	566	0	563	0	549	562	565	574	0	0	563	569	545	561	550	550	0	552	0	566	0	547	0	0	0	551	0	0	554	0	541	547	554	0	558	563	557	553	0	549	0	568	0	0	0	540	526	0	0	0	563	0	543	569	0	564	0	0	555	547	546	547	551	0	0	0	564	558	0	545	542	0	555	560	555	562	555	554	564	550	541	0	0	0	0	0	0	0	0	0	0	0	0	0	0	552	545	528	0	528	527	0	0	539	532	541	542	0	0	553	548	0	0	0	0	0	0	0	0	547	0	0	555	0	540	0	551	0	0	0	524	0	0	0	0	0	0	564	0	0	0	0	0	569	0	0	0	0	0	0	0	0	0	0	0	0	0	0	0	0	0	0	0	0	538	515	0	0	0	533	0	554	554	552	555	554	0	0	0	0	0	0	0	0	0	0	0	0	0	0	0	0	545	529	523	513	0	0	0	0	0	0	572	0	0	0	0	530	546	541	541	540	540	538	539	538	535	539	540	538	539	540	539	537	536	536	535	535	534	536	535	536	537	537	537	537	537	538	538	537	535	533	534	532	533	535	533	537	534	534	530	533	530	532	531	532	534	535	534	533	532	528	528	526	528	529	528	528	529	529	527	529	528	529	528	528	528	527	526	528	526	526	525	526	526	524	523	521	521	521	522	523	523	523	523	523	523	521	518	518	519	518	518	520	515	516	516	517	520	518	517	513	509	509	509	511	510	511	510	511	526	562	580	578	580	576	567	567	562	563	542	0	502	497	494	487	483	487	495	499	0	490	478	482	0	0	0	0	0	0	0	0	0	0	0	0	0	0	0	0	0	0	0	0	0	0	0	0	0	0	0	0	0	0	0	0	0	0	0	0	0	0	0	0	0	0	0	0	0	0	0	0	0	0	0	0	0	0	0	0	0	0	0	0	0	0	0	0	0	0	0	0	0	0	0
0	0	0	0	0	0	0	0	0	0	0	0	0	0	0	0	0	0	0	0	0	0	0	0	0	0	0	0	0	0	0	0	0	0	0	0	0	0	0	0	0	0	0	0	0	0	0	0	0	0	0	0	0	0	0	0	0	0	0	0	0	0	0	0	0	0	0	0	0	0	0	0	0	0	0	0	0	0	0	0	0	0	0	0	0	0	0	0	0	0	0	0	0	0	0	0	0	0	0	0	0	0	0	0	0	0	0	345	348	349	0	0	0	0	359	364	363	368	367	365	0	366	359	370	367	367	369	374	381	387	392	394	398	398	401	401	407	404	404	399	408	408	408	410	415	414	419	418	424	422	425	428	432	434	436	436	439	439	440	439	443	443	446	446	449	450	453	453	453	454	456	453	450	451	451	453	453	454	452	455	464	459	472	456	0	470	459	456	0	0	0	0	0	0	0	0	0	478	0	0	0	481	0	480	464	461	456	456	455	455	458	459	461	464	477	485	503	509	518	519	523	520	526	526	529	532	533	531	539	538	544	548	0	0	606	609	614	615	622	623	626	621	618	603	596	594	591	590	589	591	588	587	586	586	586	587	587	588	588	586	586	584	580	574	571	568	566	565	563	564	562	563	563	565	564	565	563	564	563	566	567	568	567	566	564	565	564	563	565	566	566	565	566	565	566	566	566	566	565	564	565	566	569	569	571	571	572	571	572	572	571	570	570	569	570	569	568	569	569	568	570	571	570	570	571	568	569	556	0	553	0	564	0	573	571	560	0	0	562	0	0	555	0	0	0	0	0	0	0	558	558	572	568	0	0	0	0	0	540	0	551	558	0	0	0	0	0	572	0	0	0	0	0	562	548	0	573	586	0	0	0	0	0	0	0	560	0	0	0	0	0	0	0	0	564	561	559	558	553	558	570	0	0	0	548	0	0	0	549	0	0	573	570	575	556	0	559	556	561	0	0	569	564	574	0	575	557	0	0	0	0	0	0	0	0	587	0	0	557	542	523	523	545	541	548	0	551	0	0	0	561	550	545	545	542	543	550	562	574	0	0	567	0	560	553	0	548	556	552	576	550	561	555	558	551	551	555	559	0	559	554	0	561	0	553	550	549	558	545	549	544	544	0	548	551	0	544	551	550	542	535	551	545	551	555	553	549	551	564	0	0	548	562	547	555	543	0	564	557	0	544	525	533	534	555	0	561	550	547	548	545	551	555	0	0	0	553	0	554	0	0	0	0	560	555	555	567	564	574	561	558	556	544	553	0	568	0	568	562	562	546	558	564	560	564	0	563	0	589	556	0	0	548	0	550	0	0	555	0	0	0	565	0	0	551	0	546	0	558	0	567	0	0	0	531	0	0	0	558	541	557	554	561	549	555	552	538	532	549	0	0	0	556	0	0	0	552	0	545	0	555	563	0	554	554	543	0	541	0	556	0	0	0	0	0	0	0	0	541	0	545	0	539	0	543	548	0	0	531	531	0	0	0	0	545	0	0	0	556	0	0	0	0	0	0	0	0	0	562	546	0	0	550	547	0	0	558	0	0	0	0	0	567	0	0	0	0	0	0	0	0	0	0	0	0	0	0	0	0	0	0	0	0	0	0	0	0	0	0	0	0	0	0	518	505	509	0	0	541	0	0	0	0	0	0	0	0	0	0	0	0	0	0	0	0	0	0	546	0	554	563	0	536	0	0	0	0	0	0	0	0	0	541	0	0	0	542	544	541	539	537	537	539	537	538	540	540	543	540	541	538	537	535	536	535	536	535	535	535	539	538	538	542	540	538	539	537	537	535	535	535	536	538	538	535	537	534	534	533	534	533	534	533	534	534	534	535	532	531	529	529	528	529	528	528	529	529	529	526	527	527	527	527	527	527	526	526	526	525	525	525	526	525	524	526	524	524	525	524	524	525	524	524	522	522	521	520	519	520	521	519	516	517	517	514	519	519	518	515	514	511	512	512	513	512	513	513	519	528	570	576	583	582	574	575	569	571	566	564	527	0	495	494	487	485	489	500	0	500	494	0	492	0	0	0	0	0	0	0	0	0	0	0	0	0	0	0	0	0	0	0	0	0	0	0	0	0	0	0	0	0	0	0	0	0	0	0	0	0	0	0	0	0	0	0	0	0	0	0	0	0	0	0	0	0	0	0	0	0	0	0	0	0	0	0	0	0	0	0	0	0	0	0
0	0	0	0	0	0	0	0	0	0	0	0	0	0	0	0	0	0	0	0	0	0	0	0	0	0	0	0	0	0	0	0	0	0	0	0	0	0	0	0	0	0	0	0	0	0	0	0	0	0	0	0	0	0	0	0	0	0	0	0	0	0	0	0	0	0	0	0	0	0	0	0	0	0	0	0	0	0	0	0	0	0	0	0	0	0	0	0	0	0	0	0	0	0	0	0	0	0	0	0	0	0	0	0	359	0	343	348	348	349	354	0	0	362	365	361	0	0	0	0	362	365	367	369	364	368	371	375	385	390	397	394	397	395	403	400	407	403	405	408	407	407	411	409	412	414	417	420	424	423	428	428	430	434	435	436	437	438	439	441	444	445	446	448	450	451	454	454	456	456	455	454	452	452	451	455	455	450	451	450	464	455	465	0	0	464	473	458	451	0	0	0	0	0	455	0	0	0	498	0	0	490	0	477	461	466	466	458	454	456	456	457	462	469	477	500	0	508	519	514	520	524	527	528	528	530	532	532	538	540	546	577	581	605	608	612	617	618	623	624	626	622	614	603	594	591	590	590	590	590	588	587	586	586	585	587	587	589	588	589	584	581	578	573	570	569	567	566	564	565	564	565	565	566	565	566	566	566	565	568	567	569	569	568	567	565	565	564	566	566	567	566	567	567	568	567	567	567	567	566	567	568	570	571	573	572	572	571	572	572	572	571	570	570	569	570	568	568	568	569	569	570	572	571	572	571	571	0	567	0	0	0	0	572	0	0	0	0	0	564	558	563	552	0	0	0	0	0	0	0	0	559	569	0	0	0	0	0	0	544	547	0	0	0	0	0	570	0	0	575	0	0	0	0	0	554	0	571	577	583	0	0	0	0	0	0	558	0	0	560	0	0	537	559	0	0	562	0	0	0	570	565	559	556	0	0	566	0	0	0	0	574	0	570	0	563	538	556	552	0	547	560	588	572	573	570	0	547	0	0	0	0	0	567	559	566	574	567	554	553	545	534	0	0	554	0	0	0	563	559	560	562	0	0	0	555	0	569	0	562	568	560	0	559	557	558	555	569	562	562	552	0	561	559	551	557	551	552	546	0	549	0	0	558	556	557	0	563	0	554	551	559	559	0	571	550	542	543	542	538	527	535	0	544	550	558	551	541	551	540	0	552	549	555	541	0	555	569	555	551	535	529	532	0	0	561	0	552	546	541	0	0	553	551	553	559	0	550	550	0	0	0	569	565	0	551	573	586	564	0	563	562	556	551	562	570	575	0	553	0	548	559	550	543	555	546	0	0	568	0	0	0	0	551	554	557	540	565	556	0	538	570	0	0	549	550	560	560	568	571	565	548	0	0	0	0	0	549	547	565	551	0	563	552	549	0	0	523	564	557	0	0	0	0	560	565	0	547	0	0	0	0	558	567	550	543	539	545	561	0	558	0	0	545	0	540	558	0	530	532	0	534	0	544	0	541	0	0	538	546	551	0	551	563	541	0	0	540	541	539	0	0	0	0	0	0	0	0	0	551	559	537	0	0	0	552	0	0	0	531	519	0	0	0	0	0	0	0	560	553	0	0	0	0	0	0	0	567	0	0	0	0	0	0	0	0	0	0	0	0	0	550	0	0	0	0	0	0	0	0	528	0	537	0	0	0	0	0	0	0	0	0	0	0	0	0	0	0	0	0	0	0	0	0	0	0	0	0	554	0	0	544	0	0	524	529	0	537	543	540	539	538	539	538	541	542	542	541	540	541	539	537	537	537	535	535	535	535	534	536	538	540	540	541	538	540	538	535	533	534	535	537	537	540	537	536	534	537	533	538	536	536	534	535	533	534	536	532	530	529	530	532	532	532	531	531	530	531	530	530	530	530	530	531	530	528	527	526	527	526	527	527	526	526	524	524	525	524	525	525	525	525	524	523	524	523	521	520	520	521	518	518	513	514	515	517	518	518	515	516	514	516	512	515	513	513	515	524	556	575	582	584	584	581	573	572	573	564	556	539	529	505	497	492	491	0	499	498	484	491	0	0	0	0	0	0	0	0	0	0	0	0	0	0	0	0	0	0	0	0	0	0	0	0	0	0	0	0	0	0	0	0	0	0	0	0	0	0	0	0	0	0	0	0	0	0	0	0	0	0	0	0	0	0	0	0	0	0	0	0	0	0	0	0	0	0	0	0	0	0	0	0	0
0	0	0	0	0	0	0	0	0	0	0	0	0	0	0	0	0	0	0	0	0	0	0	0	0	0	0	0	0	0	0	0	0	0	0	0	0	0	0	0	0	0	0	0	0	0	0	0	0	0	0	0	0	0	0	0	0	0	0	0	0	0	0	0	0	0	0	0	0	0	0	0	0	0	0	0	0	0	0	0	0	0	0	0	0	0	0	0	0	0	0	0	0	0	0	0	0	0	0	0	0	0	0	355	348	351	344	349	0	351	350	0	0	360	0	367	0	374	0	371	370	367	366	366	364	369	373	384	387	395	397	398	400	400	401	398	404	399	403	406	408	406	409	412	413	415	420	421	423	424	426	429	431	435	437	437	438	438	441	442	445	445	448	448	451	452	454	455	456	456	456	455	453	453	451	453	451	453	452	466	451	469	462	0	475	470	0	464	447	457	0	0	0	469	0	471	467	491	498	0	510	505	497	459	461	460	458	454	456	455	457	460	465	474	500	0	0	515	521	514	520	518	519	527	529	530	533	535	538	540	552	575	582	606	610	612	615	618	621	624	626	619	613	602	596	591	591	590	590	589	588	587	586	586	585	587	587	588	588	588	586	582	578	574	571	568	567	567	565	565	565	565	565	567	566	568	566	566	566	568	569	570	570	569	566	565	565	564	565	566	567	566	568	568	568	568	568	567	567	566	568	570	572	572	573	572	572	572	572	573	572	573	571	571	570	571	570	570	570	571	572	571	573	572	571	567	567	0	0	0	0	0	0	0	0	0	0	0	0	0	0	571	564	575	0	0	0	0	0	551	0	0	563	0	0	0	0	0	532	540	0	0	0	0	0	0	0	576	576	0	592	577	585	566	0	578	567	0	579	0	590	0	0	0	0	554	544	562	563	0	0	557	0	0	0	0	565	0	560	0	576	0	0	0	556	559	0	553	555	0	0	0	0	0	0	0	0	558	0	564	565	0	566	0	0	0	572	0	548	0	0	555	0	559	569	566	575	0	574	554	546	0	0	0	0	544	552	0	0	0	0	0	0	0	0	544	0	561	555	553	559	556	562	0	0	0	0	562	551	567	556	547	0	562	550	0	0	561	557	552	544	0	535	535	528	543	0	0	557	551	555	538	566	539	542	549	549	541	526	534	535	536	532	0	539	556	555	549	550	551	549	558	569	559	553	564	547	0	549	549	548	548	543	543	570	560	555	548	552	542	0	551	551	557	560	554	0	542	557	0	554	0	0	555	0	565	577	565	570	562	559	545	551	554	0	0	571	567	554	552	550	554	553	554	560	560	556	564	0	0	562	552	555	552	0	0	0	560	0	0	0	552	558	570	560	556	562	561	560	555	554	543	0	0	0	545	0	557	555	553	556	554	557	553	549	0	549	552	570	551	560	564	565	569	564	557	548	0	0	0	548	553	557	566	547	0	553	0	556	559	559	568	565	554	553	545	548	540	0	527	529	527	0	0	544	0	0	561	543	0	541	0	0	566	0	0	0	0	0	0	0	0	0	0	0	541	547	553	559	0	551	548	0	0	544	542	543	534	0	0	0	0	0	0	0	0	0	0	0	0	0	0	0	0	0	0	0	0	0	0	0	0	0	0	0	0	0	0	0	0	0	0	560	0	0	0	536	0	0	0	527	0	541	528	0	0	0	0	0	572	0	0	0	0	0	0	0	553	552	0	558	0	0	0	0	0	0	0	0	0	0	558	0	0	0	0	0	540	542	538	538	537	537	538	538	542	541	542	541	540	540	538	537	538	537	538	538	538	538	538	539	539	540	541	541	540	538	536	536	535	537	539	540	542	539	538	535	537	536	539	537	538	536	537	534	532	532	531	532	528	532	530	530	530	530	530	532	532	531	530	529	528	530	530	531	528	528	527	527	526	527	526	526	524	524	526	526	527	529	526	526	525	524	524	525	523	523	520	520	519	518	515	515	515	517	517	516	518	515	515	516	517	513	514	513	513	512	520	553	582	581	582	586	583	580	0	569	570	560	552	0	505	499	489	497	495	497	488	489	484	0	0	0	0	0	0	0	0	0	0	0	0	0	0	0	0	0	0	0	0	0	0	0	0	0	0	0	0	0	0	0	0	0	0	0	0	0	0	0	0	0	0	0	0	0	0	0	0	0	0	0	0	0	0	0	0	0	0	0	0	0	0	0	0	0	0	0	0	0	0	0	0	0
0	0	0	0	0	0	0	0	0	0	0	0	0	0	0	0	0	0	0	0	0	0	0	0	0	0	0	0	0	0	0	0	0	0	0	0	0	0	0	0	0	0	0	0	0	0	0	0	0	0	0	0	0	0	0	0	0	0	0	0	0	0	0	0	0	0	0	0	0	0	0	0	0	0	0	0	0	0	0	0	0	0	0	0	0	0	0	0	0	0	0	0	0	0	0	0	0	0	0	0	0	0	0	0	350	356	350	347	0	356	354	355	362	363	367	359	363	378	378	375	365	366	366	366	367	371	374	382	391	391	398	398	403	397	404	401	405	404	407	408	409	414	411	414	414	416	417	421	424	425	428	427	430	432	435	436	438	439	440	442	444	445	449	449	452	452	455	456	457	457	458	456	456	455	457	453	453	454	455	450	452	466	484	484	0	0	0	0	0	457	457	463	0	0	0	471	0	0	0	500	0	0	0	0	0	456	462	454	456	453	457	459	0	472	492	513	527	520	520	516	517	519	522	527	527	531	532	535	539	547	563	564	595	603	607	616	613	620	620	626	621	619	611	597	595	590	590	589	590	589	589	588	588	586	585	588	587	588	588	590	587	583	579	575	570	569	569	567	567	568	566	567	567	568	567	569	568	567	566	568	568	569	570	568	566	565	565	563	565	566	567	567	568	568	568	569	568	569	569	568	569	572	572	572	573	573	572	570	571	573	572	572	572	572	570	571	569	570	569	570	572	572	573	573	573	575	566	572	566	568	0	0	0	571	0	0	563	0	0	0	0	0	0	554	566	0	0	0	0	0	0	559	0	560	554	0	0	0	546	0	0	0	0	0	0	0	570	565	574	0	571	0	0	570	573	0	568	560	577	572	591	0	574	564	0	558	550	0	576	555	0	564	0	0	0	0	0	0	556	556	571	0	0	0	565	0	0	562	556	0	0	563	0	0	0	550	544	553	0	567	579	580	580	585	572	0	573	558	0	0	0	558	568	0	576	575	578	0	573	567	563	554	0	0	0	555	0	565	569	0	0	0	0	0	0	568	0	563	565	549	0	540	556	551	562	0	0	575	565	561	0	0	563	561	0	0	553	0	562	0	550	0	0	0	0	547	0	0	0	543	0	552	549	564	0	557	562	561	553	0	542	526	544	545	558	0	0	558	546	548	549	0	0	581	568	552	562	567	553	548	551	536	539	558	550	555	564	547	549	551	0	546	560	561	568	0	545	550	560	0	563	0	563	555	557	568	566	558	561	564	549	551	561	561	575	0	571	546	562	551	547	553	0	559	547	552	566	0	542	557	0	0	560	560	565	561	0	556	0	555	561	0	549	551	557	559	566	560	569	557	562	538	0	532	531	534	555	559	555	553	560	0	0	0	556	0	0	0	574	567	574	565	573	567	576	562	565	0	534	0	551	0	0	560	0	546	540	547	551	0	549	556	551	555	550	546	541	538	0	0	539	0	0	543	0	0	554	0	0	0	0	0	559	0	0	0	0	0	542	0	0	0	0	545	538	539	550	0	0	565	575	564	0	555	541	0	0	552	0	540	536	0	0	0	0	0	0	0	546	0	547	0	0	0	565	565	567	0	0	0	0	0	0	0	0	0	0	532	0	0	0	0	0	0	0	0	0	0	0	0	0	0	0	0	0	0	0	0	0	0	0	0	0	0	540	0	551	558	554	0	0	0	0	0	0	0	0	0	0	0	0	0	0	0	0	0	0	542	543	540	539	538	538	538	541	541	542	540	541	540	542	542	542	541	538	539	537	537	540	539	538	540	541	541	543	541	539	538	536	537	538	540	541	541	539	540	539	541	539	543	538	538	535	534	533	533	532	529	529	530	530	531	534	533	532	532	534	534	533	532	531	531	530	530	531	528	528	526	528	527	528	527	525	522	524	524	526	526	527	526	526	523	526	525	526	524	524	521	521	519	518	517	516	516	515	516	516	515	513	516	515	518	515	515	512	512	511	0	547	584	588	591	586	582	581	574	571	569	560	544	532	510	506	0	0	495	494	488	486	484	0	0	0	0	0	0	0	0	0	0	0	0	0	0	0	0	0	0	0	0	0	0	0	0	0	0	0	0	0	0	0	0	0	0	0	0	0	0	0	0	0	0	0	0	0	0	0	0	0	0	0	0	0	0	0	0	0	0	0	0	0	0	0	0	0	0	0	0	0	0	0	0	0
0	0	0	0	0	0	0	0	0	0	0	0	0	0	0	0	0	0	0	0	0	0	0	0	0	0	0	0	0	0	0	0	0	0	0	0	0	0	0	0	0	0	0	0	0	0	0	0	0	0	0	0	0	0	0	0	0	0	0	0	0	0	0	0	0	0	0	0	0	0	0	0	0	0	0	0	0	0	0	0	0	0	0	0	0	0	0	0	0	0	0	0	0	0	0	0	0	0	0	0	0	0	352	0	352	351	343	349	351	355	355	359	358	362	359	370	370	372	372	366	366	369	365	369	370	372	379	386	394	399	395	398	402	400	402	404	405	405	408	404	411	414	416	415	418	419	421	422	425	424	428	430	430	433	435	437	439	440	442	442	445	445	449	449	453	453	456	455	457	456	459	457	457	455	455	455	455	456	453	455	0	0	478	0	0	0	0	0	0	0	456	454	450	0	0	471	483	486	0	0	0	0	459	0	0	0	461	458	457	456	459	462	467	479	0	508	518	520	516	513	513	520	525	527	529	533	535	537	544	548	553	576	594	607	608	613	614	620	621	621	618	616	609	598	595	590	590	588	590	590	590	588	589	588	586	587	588	587	590	589	587	584	582	576	572	569	567	569	567	568	566	566	566	569	568	570	569	568	566	567	568	568	569	568	566	567	566	566	566	568	568	568	569	569	570	570	569	569	569	570	571	573	574	573	574	573	572	571	572	574	573	573	573	574	570	572	572	570	570	571	572	573	574	572	573	569	574	570	566	569	0	569	574	575	0	585	0	568	0	568	0	0	568	0	571	0	0	0	0	0	571	0	574	0	0	0	0	0	0	0	0	0	574	565	0	566	566	0	582	564	580	0	0	0	0	0	562	567	578	563	582	582	0	562	563	545	0	0	0	0	0	0	0	0	0	0	552	554	0	0	0	578	580	0	0	0	0	0	557	558	0	560	0	0	547	550	0	565	567	580	579	566	0	0	573	568	0	571	0	0	563	551	547	0	576	564	581	564	564	559	552	558	0	541	0	550	0	0	0	0	0	0	0	0	555	562	576	0	0	552	551	540	0	543	0	567	0	0	572	559	0	561	0	556	0	556	559	568	553	561	545	0	0	0	532	0	562	562	0	564	557	539	548	0	567	553	0	556	557	550	542	545	532	546	563	551	0	543	554	542	555	564	0	0	0	0	0	0	564	550	0	554	564	551	552	551	0	545	0	540	555	562	574	555	563	562	0	563	555	548	0	549	0	561	0	0	554	571	557	551	0	552	567	553	564	581	566	0	553	550	0	0	559	569	565	0	555	546	551	0	554	560	561	0	0	0	0	0	0	553	0	0	554	0	564	565	571	563	0	0	0	0	550	537	546	543	552	557	557	550	553	558	558	541	0	0	552	564	552	557	555	0	569	0	567	568	560	542	546	544	0	0	0	562	556	0	0	554	550	545	0	0	562	559	551	546	0	0	561	539	538	546	540	0	0	0	0	0	565	0	561	0	0	551	552	0	0	0	0	0	0	0	0	0	0	0	553	0	0	0	0	0	0	0	0	552	0	0	0	0	0	0	0	0	0	0	556	0	549	551	0	0	0	555	0	0	573	0	0	0	0	0	0	0	0	0	0	0	0	0	0	0	0	0	0	0	0	0	0	0	0	0	0	0	0	0	0	553	562	572	554	0	0	0	0	0	556	0	0	0	560	0	0	0	0	0	0	0	0	0	0	570	0	550	0	0	0	541	542	541	539	539	539	540	540	542	542	540	540	541	541	542	542	542	540	540	542	542	542	542	541	540	540	541	540	540	541	538	538	540	539	540	540	541	541	540	540	542	542	540	538	537	534	535	535	533	533	531	531	532	530	530	532	529	531	531	535	535	533	530	531	528	529	531	530	530	530	528	528	527	527	527	525	523	525	525	527	527	527	527	527	527	526	526	526	525	523	519	522	519	518	517	518	517	516	516	514	515	514	516	516	516	514	513	511	511	509	0	549	588	589	595	588	589	579	580	571	568	563	550	529	526	498	500	499	493	492	488	487	483	0	0	0	0	0	0	0	0	0	0	0	0	0	0	0	0	0	0	0	0	0	0	0	0	0	0	0	0	0	0	0	0	0	0	0	0	0	0	0	0	0	0	0	0	0	0	0	0	0	0	0	0	0	0	0	0	0	0	0	0	0	0	0	0	0	0	0	0	0	0	0	0	0
0	0	0	0	0	0	0	0	0	0	0	0	0	0	0	0	0	0	0	0	0	0	0	0	0	0	0	0	0	0	0	0	0	0	0	0	0	0	0	0	0	0	0	0	0	0	0	0	0	0	0	0	0	0	0	0	0	0	0	0	0	0	0	0	0	0	0	0	0	0	0	0	0	0	0	0	0	0	0	0	0	0	0	0	0	0	0	0	0	0	0	0	0	0	0	0	0	0	0	0	0	0	353	0	358	349	0	352	352	355	359	366	370	370	366	358	379	375	372	368	365	367	366	367	368	376	383	385	390	392	399	395	401	401	403	405	407	410	407	413	414	416	419	420	419	419	419	424	424	427	427	429	431	433	435	436	439	440	442	442	445	445	449	451	455	453	456	456	458	455	457	458	457	456	454	454	456	457	456	466	467	0	475	0	0	0	0	0	0	0	0	455	0	450	0	0	0	481	481	0	459	476	474	465	465	459	459	454	458	456	457	461	462	474	497	515	515	515	515	517	522	523	528	528	531	532	533	538	541	552	561	585	603	607	612	615	617	622	623	622	622	607	604	595	592	588	588	587	588	588	589	588	588	587	587	587	590	590	590	590	589	586	580	576	573	569	566	567	567	568	568	568	567	570	569	570	571	570	569	568	569	569	568	568	566	566	566	568	568	570	570	570	571	571	570	570	570	571	571	572	573	574	573	572	573	572	572	573	573	574	575	575	576	576	574	573	572	570	571	573	574	573	576	576	576	571	575	575	563	0	0	0	0	560	576	0	0	563	0	557	0	0	558	569	567	562	557	0	590	580	584	593	0	576	575	0	557	570	0	0	0	0	574	0	0	556	0	549	557	0	0	0	565	0	568	569	0	570	0	577	0	582	0	0	0	0	0	0	571	0	0	571	0	0	0	0	0	553	563	571	578	573	0	0	0	0	0	0	546	549	0	0	557	554	552	555	556	571	0	578	582	0	558	0	0	0	562	0	0	0	0	0	0	566	568	588	0	0	562	572	576	559	575	0	559	571	0	0	0	0	0	0	0	0	553	561	567	577	575	566	550	539	0	536	0	0	580	568	0	565	0	0	564	570	573	556	570	557	556	563	565	0	565	543	566	552	576	565	569	558	573	563	567	564	568	570	569	562	559	559	0	542	533	537	557	557	0	572	561	560	555	568	561	565	574	0	548	574	553	541	0	567	548	0	553	554	552	564	0	535	567	540	562	568	0	0	565	555	568	557	0	0	553	556	563	564	556	0	539	0	555	557	552	0	575	0	0	0	0	0	0	577	566	558	0	562	558	553	541	0	552	0	0	567	0	0	0	557	0	555	0	554	0	555	560	0	562	569	567	0	566	0	0	545	543	546	553	547	557	547	0	0	557	547	564	0	0	0	0	0	552	556	560	576	0	0	0	0	550	0	556	552	548	0	549	0	552	563	0	554	0	556	0	553	556	0	0	0	0	0	544	553	533	0	0	0	0	0	0	0	569	0	0	552	563	0	0	0	0	0	0	552	573	550	0	547	545	0	0	0	0	0	0	0	558	554	0	556	0	553	0	0	0	0	0	0	544	540	543	0	0	0	0	0	550	0	0	0	0	0	0	0	0	0	0	0	0	0	0	552	0	0	0	0	551	0	555	0	0	0	0	0	537	0	0	0	0	0	0	571	0	0	0	541	0	0	553	0	0	551	0	0	0	0	0	0	0	0	0	575	0	0	0	562	554	0	546	547	544	542	540	542	541	542	543	542	540	539	541	541	544	545	545	545	543	541	541	543	541	542	542	539	540	540	542	542	541	540	538	537	540	539	541	539	541	541	543	544	542	541	535	536	530	533	533	536	534	534	533	534	533	533	530	532	531	532	534	534	533	532	531	529	532	530	532	531	531	529	530	530	528	528	528	526	528	528	529	527	527	527	525	528	528	527	527	525	524	521	520	518	518	518	518	519	515	518	515	517	516	516	517	517	514	513	511	512	516	518	584	597	595	591	592	587	580	576	574	568	563	559	544	521	510	504	496	497	492	489	487	0	484	483	0	0	0	0	0	0	0	0	0	0	0	0	0	0	0	0	0	0	0	0	0	0	0	0	0	0	0	0	0	0	0	0	0	0	0	0	0	0	0	0	0	0	0	0	0	0	0	0	0	0	0	0	0	0	0	0	0	0	0	0	0	0	0	0	0	0	0	0	0	0	0
0	0	0	0	0	0	0	0	0	0	0	0	0	0	0	0	0	0	0	0	0	0	0	0	0	0	0	0	0	0	0	0	0	0	0	0	0	0	0	0	0	0	0	0	0	0	0	0	0	0	0	0	0	0	0	0	0	0	0	0	0	0	0	0	0	0	0	0	0	0	0	0	0	0	0	0	0	0	0	0	0	0	0	0	0	0	0	0	0	0	0	0	0	0	0	0	0	0	0	0	0	346	0	0	0	0	0	0	0	0	361	365	362	365	359	365	365	368	364	365	367	370	369	374	371	378	388	390	395	396	396	398	393	399	402	406	409	409	410	409	413	415	420	419	421	419	423	422	422	424	429	431	433	436	438	439	441	442	443	443	445	446	448	450	454	454	455	456	457	459	460	454	455	454	455	454	460	463	466	466	484	0	0	0	0	0	0	0	0	0	0	457	463	459	0	476	483	489	466	478	484	463	467	460	459	461	461	456	459	459	460	458	466	0	494	511	512	515	515	518	523	526	529	532	530	534	534	540	537	548	578	589	604	611	615	619	625	622	627	620	619	609	603	597	593	589	589	588	590	589	589	588	588	586	586	588	589	589	590	590	590	587	583	578	572	569	567	568	568	568	569	569	568	569	571	571	571	572	569	571	569	569	569	569	567	568	568	570	571	571	571	571	571	571	571	570	570	570	572	572	573	575	575	573	575	573	573	573	574	575	575	576	577	579	577	576	575	574	574	575	576	576	577	575	572	580	575	584	0	0	0	0	0	0	0	0	0	566	561	0	0	568	0	0	0	0	0	0	591	586	591	599	584	0	574	559	0	569	0	0	0	579	569	555	568	554	569	0	542	547	0	555	564	561	568	563	566	0	0	572	576	0	0	0	0	0	0	0	574	0	0	0	563	0	0	0	541	534	0	0	0	564	584	0	585	0	0	0	560	0	546	544	555	0	0	553	566	0	0	582	557	556	0	561	562	573	564	567	568	558	562	554	553	0	0	0	0	555	552	0	0	573	543	559	0	0	0	0	0	0	0	550	0	540	546	0	0	0	0	576	561	562	0	0	563	551	568	579	572	0	563	0	566	0	557	555	553	559	564	567	562	567	559	559	0	561	564	560	0	566	576	555	0	549	0	555	569	0	561	559	0	0	0	555	564	550	568	0	576	546	559	548	567	563	571	0	0	553	557	563	555	546	553	559	549	555	561	558	563	540	0	552	563	555	560	0	547	568	0	0	552	0	552	556	564	558	558	0	0	544	554	561	0	559	568	0	574	572	0	0	0	0	0	578	566	0	555	0	551	546	563	561	0	579	0	0	565	559	558	0	571	0	556	557	556	555	0	0	557	568	555	557	0	0	554	549	542	0	545	0	542	531	529	0	0	564	550	0	0	0	527	0	0	564	0	0	568	0	542	551	549	559	551	0	553	559	551	0	0	0	0	559	558	560	567	0	560	0	566	0	557	555	540	0	0	553	0	0	0	0	0	0	0	0	0	0	0	0	0	0	0	0	566	0	548	0	539	0	550	0	0	0	0	0	0	0	0	0	0	0	0	0	0	0	558	0	541	0	0	555	0	0	0	0	552	555	0	0	0	0	0	0	0	0	0	551	566	0	547	0	0	0	0	0	0	0	0	0	0	0	0	0	0	0	0	0	577	562	0	569	0	0	0	0	0	0	0	0	556	0	0	0	0	0	0	0	0	0	0	0	545	0	0	0	0	553	547	550	542	543	541	543	542	542	543	544	541	541	542	541	544	544	544	543	545	544	544	545	544	543	544	542	542	539	540	542	542	543	542	540	540	540	539	539	540	541	544	542	539	540	535	534	532	535	534	538	536	537	535	535	534	532	529	530	531	533	533	536	536	534	533	531	531	532	532	531	530	530	529	530	528	527	528	529	528	530	530	529	528	528	526	527	527	527	526	524	525	521	519	519	519	518	517	517	517	517	516	517	517	519	518	516	513	513	513	513	517	537	573	596	596	597	592	589	585	579	574	572	568	556	551	526	516	499	497	495	493	493	0	0	479	0	0	0	0	0	0	0	0	0	0	0	0	0	0	0	0	0	0	0	0	0	0	0	0	0	0	0	0	0	0	0	0	0	0	0	0	0	0	0	0	0	0	0	0	0	0	0	0	0	0	0	0	0	0	0	0	0	0	0	0	0	0	0	0	0	0	0	0	0	0	0	0
0	0	0	0	0	0	0	0	0	0	0	0	0	0	0	0	0	0	0	0	0	0	0	0	0	0	0	0	0	0	0	0	0	0	0	0	0	0	0	0	0	0	0	0	0	0	0	0	0	0	0	0	0	0	0	0	0	0	0	0	0	0	0	0	0	0	0	0	0	0	0	0	0	0	0	0	0	0	0	0	0	0	0	0	0	0	0	0	0	0	0	0	0	0	0	0	0	0	0	0	0	0	0	357	0	0	361	0	0	359	362	370	370	369	367	364	0	360	364	0	367	369	373	371	373	380	384	391	395	395	393	394	399	399	404	409	410	410	411	416	416	418	420	422	422	423	422	421	423	427	430	432	435	436	439	439	441	442	444	444	446	449	450	452	455	455	458	455	455	456	455	458	455	454	455	454	454	465	471	470	479	471	0	0	0	0	0	0	0	0	0	465	0	462	0	492	482	0	0	479	468	476	465	462	462	458	461	461	455	458	460	465	477	473	503	506	512	519	517	528	528	533	531	531	532	534	533	537	541	564	584	595	613	613	621	621	626	623	627	622	616	609	600	593	592	590	589	590	590	589	588	588	589	588	587	590	591	590	591	591	588	586	582	577	572	568	567	569	570	570	572	572	571	572	572	573	573	573	572	572	571	571	570	570	569	569	570	571	572	573	572	572	572	571	572	571	572	571	574	573	575	575	575	575	575	576	576	576	577	577	577	577	580	580	579	578	578	577	576	578	579	578	577	578	576	578	582	0	601	0	589	0	0	0	0	0	576	0	549	544	0	550	0	0	556	562	566	0	578	0	0	0	0	0	569	557	548	0	583	0	0	0	0	0	567	543	0	0	0	0	0	562	570	575	580	576	573	0	0	559	563	562	558	0	567	0	0	0	0	0	556	0	555	574	593	0	540	0	0	0	0	575	587	587	589	597	567	0	543	543	540	538	539	0	558	569	571	589	574	579	568	565	0	559	0	547	555	0	556	551	560	555	557	0	0	572	569	0	573	559	0	577	583	0	0	0	0	0	0	0	0	0	0	564	542	556	569	575	579	586	564	576	572	555	551	547	559	0	550	0	0	0	574	572	560	557	552	564	568	563	567	555	556	568	559	573	555	0	557	0	561	546	565	554	562	559	571	564	557	563	554	548	548	552	0	560	0	580	558	0	0	0	563	0	560	562	0	557	0	589	559	0	550	550	547	555	557	556	563	567	563	0	0	0	0	552	559	555	557	0	546	0	557	563	558	565	0	546	557	557	553	550	568	561	0	559	564	0	564	0	0	565	567	567	555	0	0	0	549	0	556	557	0	0	572	560	562	560	560	0	547	565	0	549	541	0	551	537	547	561	0	561	0	0	572	549	0	543	547	0	530	525	0	0	562	552	562	0	0	545	0	0	549	546	557	0	0	0	551	541	547	0	561	0	559	561	560	576	0	0	0	0	551	555	0	0	0	561	0	0	565	0	0	0	0	0	0	0	0	0	572	578	0	533	0	0	0	0	0	0	0	0	535	560	539	544	0	0	0	0	567	0	0	0	0	0	0	0	576	0	0	0	0	0	0	538	535	539	0	0	0	0	0	0	0	547	553	0	0	0	0	0	0	0	0	0	0	0	0	0	0	0	0	0	543	0	0	0	0	0	0	0	0	0	0	572	0	552	0	560	0	0	0	0	0	0	0	0	0	0	0	0	0	0	0	0	0	0	0	547	0	0	0	0	0	555	0	0	543	542	540	542	544	546	545	546	544	543	544	543	545	543	545	544	544	543	543	543	544	544	542	543	541	541	541	541	543	540	540	540	539	539	540	541	541	540	542	543	541	539	535	536	533	533	532	538	538	540	539	538	534	534	533	533	533	534	536	535	535	534	534	531	532	530	531	529	530	530	530	530	530	529	529	530	531	532	530	530	530	527	528	527	528	527	526	525	524	521	521	520	520	520	519	519	517	519	518	520	520	519	518	518	514	515	514	516	525	554	580	586	594	595	592	588	585	581	576	572	572	560	557	531	504	509	502	501	494	500	0	490	486	484	474	0	0	0	0	0	0	0	0	0	0	0	0	0	0	0	0	0	0	0	0	0	0	0	0	0	0	0	0	0	0	0	0	0	0	0	0	0	0	0	0	0	0	0	0	0	0	0	0	0	0	0	0	0	0	0	0	0	0	0	0	0	0	0	0	0	0	0	0	0	0
0	0	0	0	0	0	0	0	0	0	0	0	0	0	0	0	0	0	0	0	0	0	0	0	0	0	0	0	0	0	0	0	0	0	0	0	0	0	0	0	0	0	0	0	0	0	0	0	0	0	0	0	0	0	0	0	0	0	0	0	0	0	0	0	0	0	0	0	0	0	0	0	0	0	0	0	0	0	0	0	0	0	0	0	0	0	0	0	0	0	0	0	0	0	0	0	0	0	0	0	0	0	0	355	356	0	0	363	358	360	358	365	365	370	370	365	357	363	367	364	370	369	373	375	383	385	386	393	395	397	396	395	397	398	399	405	408	411	413	411	409	415	418	421	422	423	422	423	427	428	430	435	436	438	438	439	441	443	445	447	449	451	451	453	454	459	453	457	457	454	456	455	455	454	454	456	460	458	473	0	472	0	0	0	0	0	0	0	0	0	0	0	468	481	0	0	0	497	483	0	473	463	465	460	461	460	460	459	462	458	458	466	0	496	509	513	516	518	524	527	531	532	531	535	531	534	531	529	529	543	0	613	614	617	626	626	629	629	629	620	617	605	601	595	592	590	591	591	591	591	590	589	588	589	588	591	590	592	591	593	591	587	580	577	571	569	568	569	571	570	573	571	571	572	572	572	573	574	572	572	571	572	570	571	571	571	571	573	575	574	574	573	573	572	573	573	574	573	575	574	577	577	578	579	581	581	580	581	581	580	580	581	582	584	583	584	584	581	582	582	583	583	583	580	584	578	587	586	0	590	593	0	0	569	0	0	0	0	0	554	0	0	0	0	0	0	0	577	583	0	0	0	0	0	0	0	561	0	580	0	0	0	0	550	0	0	0	0	0	0	571	563	0	594	575	582	573	0	0	0	569	563	558	0	551	579	572	580	0	0	557	567	569	572	568	0	556	548	543	554	0	566	577	0	0	0	0	559	540	546	544	544	551	0	572	564	581	577	554	0	569	567	560	0	0	0	547	549	558	562	553	0	0	550	551	563	571	0	562	0	0	559	0	0	575	0	0	0	0	562	561	0	559	0	540	0	564	576	0	575	572	578	566	559	551	546	551	547	547	0	0	0	565	565	561	557	557	568	559	0	556	553	559	561	560	563	560	0	0	567	563	556	544	545	0	552	552	0	565	556	562	0	0	0	576	584	0	572	0	0	559	0	551	546	572	557	577	569	579	560	0	551	545	530	547	549	565	558	568	562	560	565	550	547	549	547	550	566	0	0	0	0	0	550	552	553	558	562	549	556	561	0	559	559	562	561	562	560	561	559	549	556	548	556	554	563	0	0	552	0	0	564	563	0	0	0	0	564	549	0	561	551	0	555	552	547	554	546	536	551	0	566	567	564	0	561	553	0	540	547	530	0	536	0	562	0	0	0	0	552	542	0	547	558	554	558	556	0	547	548	558	0	0	0	555	565	555	0	0	0	548	550	549	553	559	0	564	0	567	0	0	558	556	0	0	0	0	0	0	572	0	0	0	0	543	0	0	557	0	0	554	539	0	0	0	545	535	529	0	0	0	0	577	0	562	0	0	0	570	563	0	0	0	557	557	0	0	558	0	0	0	0	0	0	0	0	0	0	0	0	0	0	0	0	0	0	0	0	558	0	0	0	0	0	0	0	0	0	547	0	0	0	0	0	0	0	0	0	0	547	0	0	0	0	0	0	0	0	0	560	0	0	0	0	0	0	0	0	0	0	0	0	0	0	0	0	0	0	542	541	541	542	544	546	546	546	546	546	546	544	545	544	545	545	546	545	545	546	545	543	543	545	542	540	541	538	540	540	542	538	540	539	540	542	544	544	541	542	542	540	539	537	536	534	539	541	542	541	540	539	534	535	534	535	536	538	538	537	539	537	536	531	535	532	530	532	532	531	530	531	529	530	530	531	531	534	533	532	532	530	529	527	527	526	525	524	522	522	522	521	519	521	519	520	519	520	521	520	520	519	518	519	516	514	517	520	526	540	568	592	593	593	594	593	583	581	577	576	573	565	562	538	522	508	504	500	497	0	0	0	485	477	0	0	0	0	0	0	0	0	0	0	0	0	0	0	0	0	0	0	0	0	0	0	0	0	0	0	0	0	0	0	0	0	0	0	0	0	0	0	0	0	0	0	0	0	0	0	0	0	0	0	0	0	0	0	0	0	0	0	0	0	0	0	0	0	0	0	0	0	0	0	0
0	0	0	0	0	0	0	0	0	0	0	0	0	0	0	0	0	0	0	0	0	0	0	0	0	0	0	0	0	0	0	0	0	0	0	0	0	0	0	0	0	0	0	0	0	0	0	0	0	0	0	0	0	0	0	0	0	0	0	0	0	0	0	0	0	0	0	0	0	0	0	0	0	0	0	0	0	0	0	0	0	0	0	0	0	0	0	0	0	0	0	0	0	0	0	0	0	0	0	0	0	361	356	357	353	363	359	0	361	360	363	365	366	372	369	364	370	363	367	365	368	368	375	378	381	387	391	394	394	397	397	396	396	400	404	406	409	410	413	412	412	414	418	424	423	425	423	426	426	430	433	434	436	438	438	439	440	444	445	449	449	451	452	453	456	456	459	457	456	452	454	453	455	456	457	457	457	454	0	467	472	0	0	0	0	0	0	0	0	0	0	0	489	0	488	0	0	0	487	465	474	466	463	459	460	461	459	461	461	463	460	472	0	0	511	518	521	524	525	530	530	535	535	533	532	531	534	543	553	0	607	608	618	621	626	626	629	628	626	622	612	604	595	592	590	589	591	592	591	590	590	589	587	590	589	592	591	593	593	591	589	585	580	574	572	570	570	571	572	573	575	574	574	573	572	573	572	573	572	573	573	573	574	573	573	574	573	576	576	576	575	576	575	574	575	575	578	577	579	578	579	580	580	581	584	586	583	585	584	583	582	583	585	585	586	587	588	589	588	589	588	589	588	584	587	578	579	600	589	581	0	0	573	0	576	0	569	0	0	0	0	0	0	0	0	0	0	0	559	569	0	0	0	0	0	0	575	0	0	0	0	0	0	0	574	579	568	556	575	568	0	0	600	586	0	571	0	0	563	0	576	563	544	564	0	0	0	0	0	556	0	542	564	596	571	581	0	554	547	553	556	552	578	569	588	574	558	0	541	0	0	556	555	569	570	0	0	578	582	588	572	591	0	555	546	542	545	551	569	559	567	553	551	0	554	574	0	569	563	0	0	0	0	0	553	0	0	0	0	577	556	0	0	531	0	564	561	580	571	570	575	0	573	0	0	551	542	543	549	543	0	0	571	573	0	559	546	557	552	564	552	546	548	0	547	566	556	559	559	542	562	550	545	553	539	558	0	559	563	563	559	553	559	557	0	568	570	576	566	574	551	555	0	557	564	557	0	0	554	554	565	0	553	537	536	531	561	573	575	0	570	556	0	551	559	545	554	553	0	0	0	0	0	562	549	564	0	0	568	560	568	0	556	565	553	544	558	554	542	553	0	559	0	559	568	567	566	565	554	548	556	0	0	569	568	560	0	0	552	0	544	547	0	545	557	561	539	545	543	545	531	557	570	565	0	554	555	546	538	0	542	550	540	557	553	557	559	551	0	553	547	542	0	550	548	551	552	557	548	554	0	555	561	0	559	557	0	558	0	555	558	0	0	552	549	0	550	0	558	0	562	0	0	0	0	0	560	0	0	0	0	0	558	542	547	0	554	0	555	0	0	0	0	558	535	542	537	0	0	0	0	0	0	0	0	0	546	0	0	566	578	0	0	572	0	0	0	0	563	0	0	0	0	0	0	548	553	0	0	0	0	0	0	568	0	586	572	0	0	0	0	0	0	0	0	0	0	0	0	0	0	0	0	0	0	0	0	0	0	550	0	0	0	0	0	0	0	0	0	0	0	0	0	0	0	0	0	556	0	537	0	0	0	0	0	0	569	549	0	540	541	542	545	547	548	547	547	547	547	546	546	547	545	546	546	545	544	545	543	545	544	545	544	545	542	541	540	540	541	540	540	542	541	543	542	541	540	542	540	541	540	538	536	537	540	540	541	542	540	539	535	535	535	537	536	538	536	537	537	535	536	537	535	532	532	532	533	531	532	533	532	532	532	533	531	533	534	533	533	532	530	528	527	526	525	525	523	522	520	521	520	521	520	520	520	522	521	522	522	521	519	518	518	519	519	520	521	543	0	593	590	597	595	589	589	582	577	575	575	569	560	538	528	517	501	509	0	502	0	497	485	486	487	483	481	0	0	0	0	0	0	0	0	0	0	0	0	0	0	0	0	0	0	0	0	0	0	0	0	0	0	0	0	0	0	0	0	0	0	0	0	0	0	0	0	0	0	0	0	0	0	0	0	0	0	0	0	0	0	0	0	0	0	0	0	0	0	0	0	0	0	0	0
