# .PCD v0.7 - Point Cloud Data file format
VERSION 0.7
FIELDS x y z
SIZE 4 4 4
TYPE F F F
COUNT 1 1 1
WIDTH 1466
HEIGHT 1
VIEWPOINT 0 0 0 1 0 0 0
POINTS 1466
DATA ascii
-0.301514 0.29126 -0.64550799
1.34082 0.17590301 -1.56152
1.38867 0.65185499 -1.6914099
-0.246948 0.053833 -0.63720697
0.040863 0.071899399 -0.63818401
0.057403602 -0.021652199 -0.45874
-0.163574 -0.040801998 -0.24084499
-0.34204099 0.237305 -0.647461
0.31103501 -0.027633701 -0.366211
0.12817401 -0.0293884 -0.41552699
-0.101135 0.193726 -0.64404303
0.31738299 0.078796402 -0.64550799
-0.046539299 0.160156 -0.64306599
-0.0131607 0.33300799 -0.63818401
0.26733401 -0.0104218 -0.54882801
-0.208252 0.27294901 -0.63818401
0.13830601 -0.039245602 -0.213745
1.28418 0.118042 -1.57227
-0.170532 0.21765099 -0.64306599
-0.27465799 0.188354 -0.64648402
-0.329346 0.194336 -0.64648402
0.0102768 -0.016540499 -0.389404
-0.076660201 0.32299799 -0.64209002
1.30762 0.37231401 -1.36621
0.041320801 0.275879 -0.64550799
0.153442 -0.0032806401 -0.67138702
0.033355702 -0.037078898 -0.328125
-0.091918901 0.172241 -0.64306599
-0.043365501 0.081298798 -0.64111298
-0.321289 0.106567 -0.64843798
0.33520499 0.072570801 -0.64404303
0.4729 -0.0092315702 -0.64648402
-0.061675999 0.29028299 -0.64306599
-0.44140601 0.20080601 -0.62841803
1.30469 0.14978001 -1.33008
1.29883 0.26538101 -1.4492199
0.122314 0.084167503 -0.64013702
-0.120667 0.056640599 -0.63525403
0.195435 0.120911 -0.64306599
-0.082580604 0.081298798 -0.64111298
0.22876 0.084594697 -0.64306599
0.204834 -0.0251312 -0.355225
1.47461 0.51269501 -1.6543
1.45215 0.73877001 -1.65527
0.211182 -0.027984601 -0.349121
-0.27807599 0.176392 -0.647461
1.46289 0.47045901 -1.64063
0.35644501 0.35742199 -0.62304699
0.43994099 0.12853999 -0.65136701
0.44165 0.21057101 -0.649414
1.44238 0.70703101 -1.6709
-0.058563199 0.307861 -0.64209002
-0.344482 0.349365 -0.64648402
0.127441 -0.00012219 -0.66747999
0.165161 0.19958501 -0.64306599
1.50586 0.64306599 -1.52051
-0.452393 0.234375 -0.63134801
-0.320068 0.0060691801 -0.65820301
0.398193 0.188843 -0.64843798
-0.19323701 0.098938003 -0.63818401
0.30322301 0.133789 -0.647461
-0.101135 -0.156372 -0.4104
0.067565903 0.0148239 -0.63525403
0.29126 -0.0106354 -0.56005901
0.100098 -0.0096206702 -0.67334002
1.50488 0.64990199 -1.5195301
-0.209351 -0.25366199 -0.69140601
1.2832 0.27929699 -1.32031
-0.38476601 0.088134803 -0.647461
-0.204468 -0.032562301 -0.31420901
0.489014 0.066833504 -0.647461
-0.104187 0.139282 -0.64404303
0.091186501 0.047515899 -0.63330102
0.476807 0.069885299 -0.647461
-0.35302699 0.00299263 -0.66210902
-0.142212 -0.033844002 -0.34228501
0.47656301 0.19396999 -0.65527302
-0.046600301 0.263428 -0.64404303
0.68652302 0.453125 -0.90917999
0.58984399 -0.0065155001 -0.67919898
0.064941399 -0.0288544 -0.34008801
0.0701904 0.017715501 -0.63232398
0.019851699 0.065917999 -0.63818401
0.30932599 0.213989 -0.64111298
-0.402832 0.17968801 -0.63720697
0.080871597 0.173096 -0.64648402
1.46777 0.49804699 -1.70898
0.093810998 0.0384827 -0.63134801
0.190308 0.33203101 -0.63622999
0.38110399 0.066650398 -0.64550799
-0.30419901 0.038909901 -0.63818401
0.42968801 0.236572 -0.64550799
-0.110229 0.196777 -0.64404303
0.420654 0.0484314 -0.64550799
-0.122375 0.29077101 -0.64404303
0.364014 0.33544901 -0.62597698
1.31543 0.11084 -1.5752
0.60205102 -0.0033340501 -0.68261701
0.086425804 0.30175799 -0.64209002
0.0046997098 -0.0036659201 -0.38232401
-0.2854 0.035797101 -0.63622999
-0.25268599 0.18774401 -0.64404303
0.0498657 0.074890099 -0.63818401
0.15307599 0.16320799 -0.64306599
0.39453101 -0.0063018799 -0.65722698
0.111267 0.13659699 -0.64648402
0.182495 0.31005901 -0.64013702
0.013916 0.108459 -0.64111298
0.29663101 0.170044 -0.64648402
-0.161255 0.241577 -0.64209002
0.243164 -0.0063896198 -0.66650403
-0.22741701 0.36328101 -0.63330102
-0.0100937 0.34887701 -0.63427699
-0.200195 0.156738 -0.64111298
0.34082001 0.14331099 -0.649414
0.226074 0.181641 -0.64404303
-0.302246 0.36425799 -0.64013702
-0.143555 0.30590799 -0.64404303
1.25781 0.176636 -1.56738
0.13830601 0.032531701 -0.63134801
0.180664 0.20288099 -0.64404303
-0.0282593 0.33398399 -0.64013702
0.317871 0.3396 -0.62841803
0.204346 0.3125 -0.63330102
-0.28857401 0.30835 -0.64306599
-0.42358401 0.230591 -0.63720697
0.277832 0.23706099 -0.63818401
1.33887 0.231812 -1.5429699
0.183594 0.208984 -0.64404303
1.45996 0.61181599 -1.6914099
-0.42675799 0.054595899 -0.64648402
0.273193 0.020767201 -0.63427699
1.49023 0.52197301 -1.56445
0.375732 0.075866699 -0.64648402
0.218262 0.0119095 -0.63915998
0.14709499 0.323486 -0.64306599
-0.176636 0.27807599 -0.64306599
1.42383 0.5625 -1.73438
0.73046899 0.34643599 -0.92138702
1.49414 0.61865199 -1.53027
0.67040998 0.38891599 -0.899414
0.102173 0.236938 -0.64648402
0.204956 0.035736099 -0.63525403
0.26586899 0.041900601 -0.63818401
0.179199 0.0059966999 -0.65039098
-0.27636701 0.0060615502 -0.65722698
0.209961 0.30004901 -0.63232398
0.0108643 0.065978996 -0.63915998
-0.358643 0.139282 -0.64404303
0.16540501 0.236206 -0.64404303
-0.300293 0.164795 -0.649414
0.138184 0.145264 -0.64404303
0.33422899 -0.021789599 -0.51269501
0.050323501 0.15136699 -0.64404303
0.00186443 0.187988 -0.64550799
0.050323501 0.154419 -0.64404303
0.063964799 0.0235596 -0.62939501
-0.29858401 0.281982 -0.64550799
0.405029 0.109802 -0.649414
-0.46484399 0.087768599 -0.64404303
0.77783197 0.171509 -0.93652302
-0.436768 0.096679702 -0.64306599
0.215332 -0.033386201 -0.30810499
-0.124695 -0.0191193 -0.67334002
0.058227502 0.044403099 -0.63134801
-0.38281301 0.28149399 -0.64404303
-0.170532 0.226807 -0.64306599
0.242432 -0.0270996 -0.4104
0.182495 0.0751343 -0.64013702
-0.15515099 0.150879 -0.64209002
-0.36767599 0.211914 -0.64404303
1.28418 0.34667999 -1.3418
1.27539 0.130859 -1.39355
-0.15771499 -0.13916001 -0.27392599
0.082885697 0.074890099 -0.63818401
0.44702101 0.225464 -0.64843798
0.73339802 0.227051 -0.94726598
0.33642599 0.23583999 -0.63525403
0.117188 0.200195 -0.64550799
-0.45825201 0.243286 -0.63134801
-0.40527299 0.219971 -0.64111298
0.15356401 0.279053 -0.64550799
-0.380615 0.195557 -0.64013702
1.4834 0.53759801 -1.58887
0.0379944 -0.038635299 -0.328125
0.27197301 0.26708999 -0.63134801
0.076660201 0.0597229 -0.63622999
0.16540501 0.227173 -0.64404303
1.4541 0.72460902 -1.63965
0.31445301 0.321289 -0.62744099
0.292725 0.0907593 -0.64404303
0.16577099 0.00296974 -0.65722698
0.192139 0.247559 -0.64209002
-0.40576199 0.170654 -0.63720697
0.26806599 0.069458 -0.64306599
0.33642599 0.349121 -0.62402302
0.35278299 0.205566 -0.64306599
-0.44262701 -0.0223541 -0.67529303
1.2373 0.2052 -1.56055
1.26758 0.26513699 -1.34375
0.084472701 -0.115417 -0.37744099
0.057525601 -0.0195313 -0.45971701
1.4335901 0.45288101 -1.48242
-0.14624 -0.035247799 -0.34008801
0.184448 -0.037414599 -0.220825
-0.12384 -0.036468498 -0.249878
0.42749 0.162231 -0.65136701
-0.429443 0.31347701 -0.64111298
1.43555 0.44702101 -1.46289
1.46582 0.48681599 -1.56934
0.161865 0.099548303 -0.64209002
-0.13916001 -0.031036399 -0.38745099
-0.487793 -0.0128479 -0.67627001
0.388428 0.217407 -0.64209002
0.45141599 0.18335 -0.65039098
0.083129898 0.084167503 -0.64013702
-0.110046 0.25390601 -0.64306599
-0.082702599 0.325928 -0.64209002
-0.190552 0.12609901 -0.63915998
0.38476601 0.081909202 -0.64648402
-0.0041389498 0.34350601 -0.63525403
-0.44921899 0.018173199 -0.64843798
0.46167001 0.0060539199 -0.65625
0.240356 0.35327101 -0.62597698
-0.12731899 -0.0253448 -0.67040998
-0.52636701 -0.36718801 -0.72949201
0.071777299 0.246094 -0.64648402
0.096252397 0.182495 -0.647461
0.0536194 0.23120099 -0.647461
0.40625 0.116272 -0.65136701
0.59912097 -0.0126953 -0.66845697
0.62939501 0.0071067801 -0.77099597
0.132568 0.173096 -0.64648402
-0.176636 0.20251501 -0.64306599
0.27270499 0.136841 -0.647461
1.43164 0.72460902 -1.6757801
0.114136 0.203247 -0.64550799
0.0230255 0.132935 -0.64306599
-0.34521499 0.124695 -0.647461
-0.29711899 0.338135 -0.64209002
-0.022079499 -0.0252838 -0.41259801
0.167969 0.13281301 -0.64209002
0.26806599 0.187378 -0.64306599
-0.107239 0.184692 -0.64404303
-0.085998498 0.18774401 -0.64404303
-0.108337 0.047515899 -0.63330102
0.15332 0.28149399 -0.64404303
-0.27050799 0.050750699 -0.63622999
1.25586 0.0060462998 -1.33789
1.24316 0.16918901 -1.56738
0.098022498 0.0750122 -0.63915998
1.4668 0.90234399 -1.6992199
-0.17846701 0.12915 -0.63915998
0.210693 -0.018173199 -0.54882801
0.017028799 0.1698 -0.64550799
0.273682 0.19018599 -0.64209002
-0.322754 0.23962399 -0.64550799
-0.00117207 0.21264599 -0.64648402
-0.055694599 0.1604 -0.64404303
-0.157959 0.129517 -0.64111298
-0.402832 0.158691 -0.63720697
0.300293 0.051147498 -0.64111298
0.73046899 0.28100601 -0.94970697
-0.262207 0.16369601 -0.64550799
0.28442401 0.35327101 -0.62597698
1.17383 0.059936501 -1.42188
1.4726599 0.56103498 -1.70605
0.017517099 0.00175095 -0.38745099
0.46362299 0.168091 -0.65039098
-0.41870099 0.102722 -0.64306599
1.44629 0.79540998 -1.51074
-0.03125 0.33398399 -0.64013702
0.37231401 0.34667999 -0.625
-0.200562 0.184082 -0.64209002
-0.00117207 0.21875 -0.64648402
0.477539 0.336182 -0.64404303
0.053375199 0.157471 -0.64404303
0.72119099 0.31347701 -0.92627001
0.235962 0.050903302 -0.63818401
0.168457 0.208984 -0.64404303
0.24426299 0.118042 -0.64404303
0.19519 0.096557602 -0.64209002
-0.0099334698 -0.0185242 -0.39233401
-0.034454301 0.00367355 -0.39843801
0.25 0.307129 -0.62841803
0.31542999 -0.027557399 -0.36523399
-0.203247 0.156738 -0.64111298
0.413818 -0.0092086801 -0.64404303
0.25512701 -0.017501799 -0.52880901
0.186646 0.17553701 -0.64404303
-0.36596701 0.303711 -0.64648402
-0.199829 0.126343 -0.64013702
0.26538101 -0.0220947 -0.42553699
0.25292999 -0.000120759 -0.65917999
0.273193 0.054168701 -0.64111298
-0.46679699 0.075988799 -0.647461
-0.27758801 0.25512701 -0.64648402
0.42456099 0.16528299 -0.65136701
0.19531301 -0.018783599 -0.49682599
0.14160199 0.035553001 -0.63232398
0.204834 -0.0251312 -0.355225
0.31738299 0.081787102 -0.64550799
-0.119141 0.226807 -0.64306599
-0.15820301 0.21435501 -0.64209002
-0.27417001 0.200195 -0.64550799
0.26001 0.27880901 -0.63134801
-0.3479 -0.0157318 -0.66455102
-0.260986 0.087463401 -0.64209002
0.344971 0.036010701 -0.64013702
-0.143433 0.0295258 -0.63037097
0.21057101 0.223755 -0.64306599
0.248779 0.240723 -0.64013702
-0.291504 0.075500503 -0.64306599
-0.142212 0.080932602 -0.63818401
-0.085754402 0.105591 -0.64209002
1.35156 0.94726598 -1.66504
-0.38159201 0.091186501 -0.647461
0.35107401 0.30175799 -0.62939501
0.30004901 0.247437 -0.63427699
0.44457999 0.21057101 -0.649414
0.296143 0.093933098 -0.64550799
0.0900269 0.20043901 -0.64648402
-0.29638699 0.249512 -0.647461
-0.33544901 0.078918502 -0.64648402
0.191772 -0.024139401 -0.426514
0.44799799 -0.000121534 -0.66357398
0.44921899 0.35766599 -0.63427699
-0.222046 0.22070301 -0.64306599
1.4570301 0.62646502 -1.62598
-0.034332301 0.084289603 -0.64111298
-0.41455099 0.075866699 -0.64648402
-0.185425 0.31103501 -0.64209002
0.077697799 0.21228001 -0.64550799
0.235107 0.142212 -0.64404303
0.367432 0.32714799 -0.62744099
0.47192401 0.184204 -0.65332001
-0.228149 -0.0287476 -0.43554699
0.39575201 0.054412801 -0.64404303
0.075866699 -0.0258331 -0.68359399
0.47802699 0.14123499 -0.65332001
0.419678 0.27636701 -0.63915998
0.0109329 0.29931599 -0.64306599
-0.470947 0.0091552697 -0.65722698
0.144043 0.108765 -0.64306599
0.211914 -0.039337199 -0.22583
0.14379901 0.359375 -0.64209002
0.041259799 0.148315 -0.64404303
-0.44482401 0.0242004 -0.64648402
-0.37133801 0.236572 -0.64550799
0.34179699 0.197144 -0.64550799
-0.23339801 0.105408 -0.64111298
0.15918 0.187378 -0.64306599
0.479004 0.0029392201 -0.65039098
0.70165998 0.44165 -0.91210902
-0.14965799 0.157471 -0.64404303
1.47461 0.578125 -1.66309
0.119019 -0.036377002 -0.220825
0.289307 0.066406302 -0.64306599
0.061035201 -0.0235443 -0.45361301
0.041168202 0.29638699 -0.64306599
0.156128 0.21167 -0.64306599
0.186768 0.0297089 -0.63427699
0.237793 0.0297546 -0.63525403
-0.00071144098 -0.0277557 -0.39233401
-0.162964 0.0927734 -0.63720697
0.83007801 0.019271901 -1.03418
0.391846 0.32177699 -0.62841803
0.056060798 0.34619099 -0.64013702
-0.25268599 0.193726 -0.64404303
-0.293457 0.25854501 -0.647461
-0.20886201 0.11731 -0.64013702
0.089721702 0.35424799 -0.64404303
-0.128418 0.27856401 -0.64404303
-0.070861802 0.28149399 -0.64404303
-0.185059 0.27734399 -0.64111298
-0.174927 0.095764197 -0.63720697
1.29395 0.0946045 -1.34473
0.173462 0.00891113 -0.64013702
-0.152344 0.172241 -0.64306599
-0.20959499 0.050506599 -0.63330102
0.10199 0.203247 -0.64550799
0.332275 0.25 -0.63330102
0.23706099 0.28271499 -0.63330102
0.204834 -0.0251312 -0.355225
0.55468798 -0.0063323998 -0.66015601
0.18103001 -0.000122428 -0.66845697
0.041259799 0.27856401 -0.64404303
-0.29638699 0.25244099 -0.647461
-0.44531301 -0.0065155001 -0.67919898
0.20166001 0.0267334 -0.63427699
-0.30737299 0.134644 -0.65136701
1.28027 0.803711 -1.64355
-0.44482401 0.361572 -0.64648402
0.068420403 0.120911 -0.64306599
-0.27294901 0.29589799 -0.64209002
-0.143433 0.032470699 -0.63037097
-0.24353001 0.0567322 -0.63622999
0.035400402 0.240723 -0.64843798
0.12793 -0.041931201 -0.185669
-0.167236 0.36230499 -0.64209002
1.3125 0.112488 -1.3320301
0.75341803 0.119568 -0.97949201
-0.438232 0.078796402 -0.64550799
-0.091796897 0.111633 -0.64209002
1.4804699 0.63622999 -1.53809
0.44995099 0.112671 -0.64843798
-0.19738799 -0.035064701 -0.31005901
0.45068401 0.213623 -0.649414
0.183594 0.208984 -0.64404303
-0.0061035198 0.00714111 -0.38330099
-0.206177 0.132568 -0.64111298
-0.45166001 0.228149 -0.63037097
-0.236816 0.301025 -0.63427699
1.3085901 0.772461 -1.6601599
0.74462903 0.28784201 -0.92822301
0.14917 0.065978996 -0.63915998
-0.0041236901 0.360107 -0.63330102
0.48120099 0.25927699 -0.649414
-0.32372999 0.18554699 -0.647461
0.20166001 0.31005901 -0.63427699
1.47949 0.65039098 -1.53711
0.19274899 0.13317899 -0.64404303
-0.18261699 0.335693 -0.64306599
-0.034393299 0.108643 -0.64209002
0.351807 0.23327599 -0.63622999
0.234497 0.35034201 -0.62597698
-0.42333999 0.213989 -0.63232398
-0.0193481 0.190796 -0.64404303
0.43115199 0.088134803 -0.647461
0.169434 0.0148468 -0.63622999
-0.219238 -0.032165501 -0.32519501
0.225952 0.33325201 -0.62744099
0.37011701 0.18859901 -0.647461
-0.21057101 0.34985399 -0.63622999
-0.207886 0.0148697 -0.63720697
-0.218262 0.241089 -0.64111298
-0.27514601 0.118591 -0.647461
-0.231079 0.160156 -0.64306599
-0.42333999 0.108459 -0.64111298
-0.15515099 0.241577 -0.64209002
0.069885299 0.0235596 -0.62939501
0.13415501 0.062988304 -0.63915998
0.13537601 0.19409201 -0.64550799
0.435303 0.355957 -0.63134801
0.39697301 0.11322 -0.65136701
1.19824 0.036712602 -1.30957
0.29638699 0.22534201 -0.63915998
0.474365 0.140991 -0.65234399
0.095642097 0.117859 -0.64306599
-0.30395499 0.119141 -0.65039098
-0.25292999 0.22741701 -0.64550799
-0.0079421997 -0.0109406 -0.38549799
-0.343018 0.045257598 -0.64306599
0.47656301 0.190918 -0.65527302
-0.228027 0.135986 -0.64306599
-0.17333999 0.26855499 -0.64209002
-0.40478501 0.100037 -0.64550799
-0.1875 0.120117 -0.63915998
-0.37475601 -0.0095367404 -0.66747999
-0.282471 -0.0096054096 -0.67236298
1.29395 0.12560999 -1.33887
0.22912601 -0.0341492 -0.279053
-0.25024399 0.071899399 -0.63818401
-0.343018 0.045257598 -0.64306599
1.27344 0.94189501 -1.65625
0.30419901 0.26367199 -0.63037097
-0.2052 0.33593801 -0.63818401
-0.426025 0.364014 -0.64550799
-0.191406 0.34106401 -0.64209002
0.235107 0.124084 -0.64404303
-0.40527299 0.25317401 -0.64111298
-0.200195 0.150635 -0.64111298
-0.146118 0.208252 -0.64209002
-0.43310499 0.207031 -0.62939501
-0.139282 -0.0158081 -0.66747999
1.45313 0.71240199 -1.62988
-0.448486 0.25927699 -0.63427699
-0.29956099 0.25854501 -0.647461
0.16821299 0.33862299 -0.64306599
0.315918 0.140137 -0.64843798
-0.42285201 0.063598603 -0.64550799
-0.20959499 0.23547401 -0.64209002
-0.32421899 0.054260299 -0.64209002
-0.0701904 0.056915302 -0.63818401
0.42773399 0.0300903 -0.64209002
0.161865 0.093505897 -0.64209002
-0.44946301 0.169067 -0.63134801
1.24805 0.064208999 -1.3710901
0.39697301 0.241089 -0.64111298
1.26367 0.232544 -1.54785
0.130493 -0.0290222 -0.4104
-0.98828101 -1.65332 -3.1660199
0.124329 -0.041290302 -0.186646
1.3418 0.197144 -1.55469
-0.30542001 0.18554699 -0.647461
0.102173 0.16394 -0.64648402
0.43994099 0.12853999 -0.65136701
-0.167236 0.25366199 -0.64209002
-0.0042991601 -0.0072822599 -0.38330099
0.391357 0.0421753 -0.64209002
-0.0194092 0.21264599 -0.64648402
-0.064575203 0.1026 -0.64209002
-0.185669 0.32666001 -0.64306599
1.3007801 0.238525 -1.45117
1.4726599 0.87011701 -1.56836
1.4335901 0.39794901 -1.66113
1.47461 0.53369099 -1.6709
0.0299988 -0.026962301 -0.408447
-0.12817401 0.14501999 -0.64306599
0.33471701 -0.00815582 -0.57080102
0.33935499 0.238892 -0.63525403
0.48193401 0.25048801 -0.65039098
-0.040435798 0.129761 -0.64209002
0.358154 0.051238999 -0.64209002
0.31835899 0.167236 -0.647461
-0.427246 0.24597199 -0.63818401
0.0170135 0.29077101 -0.64404303
0.109802 -0.0096359299 -0.67431599
-0.142212 -0.033844002 -0.34228501
0.21130399 0.041778602 -0.63622999
0.2854 0.31298801 -0.62841803
-0.39672899 0.0060615502 -0.65722698
0.104309 -0.0340271 -0.31420901
0.078613304 -0.0129013 -0.67919898
-0.218262 -0.029190101 -0.36425799
0.204712 -0.03125 -0.349121
-0.22692899 0.26171899 -0.64013702
0.756836 0.10553 -0.977539
0.103271 -0.0096206702 -0.67334002
0.41674799 0.27929699 -0.63915998
1.39258 0.82324201 -1.6679699
0.215332 -0.033386201 -0.30810499
0.294678 -0.0240326 -0.42456099
0.43310499 0.18335 -0.65039098
1.4707 0.84765601 -1.52832
0.193359 0.36181599 -0.63622999
-0.0134201 -0.0073394799 -0.386475
1.44727 0.82519501 -1.5820301
0.234253 0.0059966999 -0.65039098
0.23339801 0.29956099 -0.63134801
-0.31005901 0.339111 -0.64404303
0.321289 0.28393599 -0.62939501
-0.262207 0.133423 -0.64550799
0.40429699 0.069458 -0.64306599
-0.14636201 0.226807 -0.64306599
0.0108795 0.096252397 -0.64013702
0.21228001 0.34667999 -0.63037097
-0.22070301 -0.0096664401 -0.67627001
0.42895499 0.25439501 -0.64404303
0.0048751798 0.13281301 -0.64209002
0.105713 0.032531701 -0.63134801
0.30590799 0.045043901 -0.64013702
-0.42236301 0.351318 -0.64404303
-0.2052 0.28491199 -0.63818401
0.46289101 0.079284698 -0.649414
0.24231 0.24939001 -0.63915998
0.43432599 0.34277299 -0.63427699
0.0176086 0.0090866098 -0.389404
0.170654 0.081298798 -0.64111298
0.35913101 0.158691 -0.649414
-0.40039101 0.111816 -0.64306599
0.0078735398 0.32202101 -0.64013702
0.183594 0.23925801 -0.64404303
-0.091491699 0.0751343 -0.64013702
0.36645499 0.302246 -0.63037097
-0.031311002 0.31640601 -0.64111298
0.20458999 0.292236 -0.63427699
0.311768 0.16699199 -0.64648402
-0.42895499 0.069641098 -0.64550799
-0.200073 -0.035675 -0.30297899
-0.43139601 0.0907593 -0.64404303
1.38379 0.93212903 -1.66602
1.30957 0.78906298 -1.66211
0.45581099 0.19616701 -0.65234399
-0.0829468 0.139282 -0.64404303
-0.128418 0.130127 -0.64404303
1.3418 0.197144 -1.55469
1.31543 0.27880901 -1.4834
0.34106401 0.224976 -0.63818401
-0.192627 0.080688499 -0.63622999
-0.19653299 0.28832999 -0.63915998
-0.167236 0.35620099 -0.64209002
-0.43310499 -0.0161133 -0.68017602
0.110046 0.062988304 -0.63915998
0.354004 0.036010701 -0.64013702
0.48046899 0.29247999 -0.64843798
-0.202271 0.36596701 -0.63818401
-0.37060499 0.0120926 -0.649414
-0.210205 0.304443 -0.63525403
0.74560499 0.158325 -0.96337903
0.22912601 0.139282 -0.64404303
-0.45825201 0.237305 -0.63134801
0.31298801 -0.00323105 -0.66113299
0.255615 0.032745399 -0.63525403
-0.112732 -0.0224152 -0.67724597
1.4648401 0.60888702 -1.66113
0.142456 0.047759999 -0.63622999
-0.206543 0.147827 -0.64209002
0.32983401 -0.0081710797 -0.57177699
-0.14636201 0.0119858 -0.64306599
0.47363299 0.119324 -0.65136701
-0.436768 0.216187 -0.63037097
-0.13708501 0.21435501 -0.64209002
0.075927697 0.023590101 -0.63037097
-0.255615 -0.00648499 -0.67627001
0.082763702 0.065795898 -0.63720697
-0.34204099 0.28295901 -0.647461
-0.17932101 0.25952101 -0.64209002
-0.28417999 0.17333999 -0.647461
-0.43920901 0.32910201 -0.64209002
0.31689501 0.0695801 -0.64404303
1.33691 0.183716 -1.56543
0.74560499 0.27954099 -0.92919898
-0.0041847201 0.141846 -0.64209002
0.207397 -0.0180969 -0.546875
-0.41284201 -0.031311002 -0.66357398
-0.231079 0.208618 -0.64306599
1.47461 0.473389 -1.50293
-0.222168 -0.030838 -0.32714799
-0.28759801 0.33447301 -0.64111298
-0.106689 0.36767599 -0.64111298
-0.046539299 0.16626 -0.64306599
0.140991 0.33862299 -0.64306599
-0.322754 0.32763699 -0.64550799
-0.0284424 0.272461 -0.64404303
0.76709002 0.22949199 -0.93945301
-0.46557599 0.108459 -0.64111298
-0.0222778 0.087341301 -0.64111298
0.133789 -0.033264201 -0.32104501
0.0791016 0.0474548 -0.63232398
0.40307599 0.162231 -0.65136701
-0.44872999 0.0546875 -0.647461
0.150024 0.17834499 -0.64306599
-0.136475 -0.040863 -0.20678701
0.0079193097 0.272461 -0.64404303
0.45581099 0.0090789804 -0.65234399
-0.32324201 0.258057 -0.64648402
0.036437999 -0.038635299 -0.328125
-0.39502001 0.19824199 -0.63915998
0.080383301 0.0119629 -0.64209002
0.48413101 0.203857 -0.65722698
0.108398 0.164185 -0.647461
-0.42700201 0.32299799 -0.64209002
-0.13623001 0.0148926 -0.63818401
0.48730499 0.11969 -0.65332001
0.37768599 0.038391098 -0.430664
0.080749497 0.21728501 -0.44457999
0.40942401 -0.19238301 -0.42163101
-0.15429699 0.131714 -0.45971701
-0.27172899 -0.13110401 -0.4646
-0.155396 -0.0065269498 -0.456543
-0.135132 0.22949199 -0.460693
0.37548801 -0.108154 -0.42553699
-0.16687 -0.21508799 -0.45263699
0.072326697 0.19018599 -0.44457999
0.0304108 -0.102051 -0.44262701
0.235596 -0.159668 -0.429443
0.11676 -0.0289459 -0.43847701
-0.34765601 -0.0090332003 -0.47582999
-0.053802501 -0.0297546 -0.45068401
-0.19531301 0.220581 -0.4646
0.072326697 0.117004 -0.44457999
0.290039 -0.099060103 -0.429443
0.25512701 -0.133057 -0.42846701
-0.14929201 0.058013901 -0.457764
-0.116516 0.117737 -0.45556599
-0.26586899 -0.072326697 -0.46557599
0.13403299 -0.204468 -0.43457001
0.39233401 -0.0742798 -0.426514
0.34130901 -0.227539 -0.42041001
0.075500503 -0.12793 -0.43847701
0.38622999 -0.0121689 -0.42846701
-0.172729 0.19567899 -0.46264601
-0.213135 -0.125732 -0.460693
0.26269501 0.106201 -0.43457001
-0.0155487 0.056762699 -0.44751
0.358643 -0.0263367 -0.429443
-0.21106 0.218872 -0.46557599
-0.26074201 -0.100586 -0.4646
0.16992199 0.0492859 -0.4375
-0.335693 -0.046966601 -0.47485399
-0.071227998 0.0340271 -0.45361301
-0.33129901 0.227661 -0.47485399
0.216309 0.065429702 -0.43554699
0.207275 -0.181885 -0.429443
0.25512701 -0.13501 -0.42846701
-0.042602502 -0.230103 -0.44457999
-0.111267 -0.15515099 -0.45166001
0.12817401 0.20800801 -0.44262701
0.36767599 0.123413 -0.430664
-0.073669396 0.22485401 -0.45556599
-0.15856899 0.079894997 -0.45971701
-0.081176803 -0.118469 -0.449707
-0.232666 -0.216675 -0.460693
-0.078674302 -0.193726 -0.44751
-0.14550801 -0.185303 -0.45263699
-0.117371 -0.24585 -0.45068401
0.34619099 -0.118408 -0.426514
0.202637 -0.099731401 -0.43261701
0.24560501 0.213379 -0.43652299
-0.185791 0.176147 -0.46264601
0.26928699 -0.14917 -0.42846701
-0.20410199 0.18347199 -0.4646
0.289307 0.044860799 -0.43457001
0.238892 0.057281502 -0.43554699
-0.28417999 0.179199 -0.47070301
0.388428 -0.115845 -0.42456099
0.223389 -0.20410199 -0.429443
0.40234399 0.076477103 -0.42846701
-0.28979501 -0.19494601 -0.46557599
0.120178 0.25439501 -0.44360399
0.13024899 -0.137329 -0.43554699
0.311768 0.196045 -0.43457001
0.35546899 0.188232 -0.430664
0.0012989 0.204956 -0.449707
0.0572205 -0.116089 -0.44067401
0.205688 -0.17419399 -0.430664
0.0303497 -0.155762 -0.44165
0.0346375 -0.064758301 -0.44360399
0.117554 0.089172401 -0.44165
-0.190552 0.145996 -0.46362299
-0.20922901 -0.056518599 -0.46167001
0.285889 -0.172607 -0.426514
0.0118408 0.179199 -0.44872999
0.40527299 0.0059509301 -0.42749
-0.224243 0.24304201 -0.46557599
-0.280029 -0.085876502 -0.46777299
-0.0978394 -0.173096 -0.44872999
-0.27758801 0.174805 -0.47070301
-0.15356401 0.0171356 -0.457764
0.016021701 0.17248499 -0.44751
0.34179699 -0.064575203 -0.42846701
0.24511699 -0.17333999 -0.42846701
0.296875 0.124268 -0.43359399
0.35742199 -0.14416499 -0.42553699
-0.22692899 0.214966 -0.46679699
0.088073701 -0.078613304 -0.439697
-0.20666499 -0.119202 -0.460693
-0.0049629202 -0.185303 -0.44262701
0.12853999 -0.100647 -0.43652299
0.32617199 0.085754402 -0.43457001
0.31860399 -0.0082168598 -0.43261701
-0.000802517 -0.208252 -0.44262701
-0.091491699 -0.20043901 -0.44872999
0.0097122202 0.098815903 -0.44751
-0.33422899 0.26831099 -0.47582999
0.136475 0.18725599 -0.44262701
0.0609436 -0.179077 -0.4375
-0.0582886 0.091430701 -0.45263699
-0.31103501 0.171753 -0.47485399
-0.12988301 0.16992199 -0.457764
0.202271 -0.231323 -0.42749
-0.31884801 -0.141357 -0.46972701
0.078613304 0.110718 -0.44457999
-0.149902 0.164185 -0.45971701
0.057067901 -0.146851 -0.439697
-0.120789 0.085632302 -0.45556599
0.164673 -0.13488799 -0.43457001
-0.147705 -0.204346 -0.45263699
-0.0621338 -0.101563 -0.449707
-0.0174866 -0.217041 -0.44360399
-0.20666499 -0.121399 -0.460693
0.37353501 -0.197266 -0.42358401
0.14563 0.080322303 -0.43847701
0.042816199 -0.126709 -0.44165
0.41747999 -0.034088101 -0.42553699
0.25195301 -0.22070301 -0.426514
0.375732 -0.161377 -0.42358401
-0.15685999 -0.128296 -0.45458999
-0.34985399 0.25927699 -0.47582999
0.078613304 0.13366701 -0.44457999
-0.156738 0.188354 -0.460693
-0.328857 0.035613999 -0.47485399
0.206543 0.0450745 -0.43652299
0.302246 -0.074829102 -0.429443
0.043182399 0.12560999 -0.445557
-0.15893599 0.158081 -0.460693
-0.269775 0.030777 -0.46875
-0.25634801 0.121155 -0.46875
0.31616199 -0.162476 -0.426514
0.151733 -0.223877 -0.43261701
0.41455099 -0.051238999 -0.418457
-0.0133209 -0.221191 -0.44360399
-0.29516599 -0.039917 -0.47070301
-0.0152359 -7.0750699e-05 -0.386475
-0.26806599 -0.087646499 -0.46557599
0.074646004 0.18005399 -0.445557
0.0304871 -0.064758301 -0.44360399
0.280518 -0.062805198 -0.430664
-0.0093154898 0.2229 -0.45166001
-0.247803 -0.061279301 -0.4646
0.106934 0.0144196 -0.44067401
0.19189499 0.25268599 -0.44067401
-0.211426 -0.084716797 -0.46167001
0.0118408 0.202393 -0.44872999
0.12560999 0.0185699 -0.44067401
0.28271499 -0.101318 -0.430664
-0.0050659198 0.248413 -0.45166001
0.019332901 -0.018279999 -0.38745099
-0.234741 -0.227539 -0.460693
0.36108401 -0.084533699 -0.42749
0.0222931 0.113342 -0.44653299
-0.294678 -0.092834502 -0.46972701
0.2052 -0.177856 -0.429443
-0.161865 -0.030151401 -0.456543
0.263428 0.145264 -0.43554699
-0.112244 0.128418 -0.45556599
0.207642 -0.057312001 -0.43457001
-0.026306201 0.118835 -0.45166001
-0.00289726 -0.135986 -0.44457999
0.206177 -0.117798 -0.43164101
-0.122437 -0.083251998 -0.45361301
-0.211914 -0.032714799 -0.46264601
0.239746 0.0182648 -0.43359399
0.00128746 0.048095699 -0.445557
0.4104 -0.120911 -0.41455099
0.32324201 0.161011 -0.43359399
0.057861298 0.117249 -0.445557
-0.102966 -0.076721199 -0.45263699
-0.199219 0.082763702 -0.46362299
-0.015686 0.20373499 -0.45166001
-0.157959 -0.0043869 -0.457764
0.37817401 -0.028289801 -0.42846701
0.117493 -0.238647 -0.43359399
-0.33715799 -0.152832 -0.47070301
0.150024 0.088806197 -0.439697
-0.148682 -0.0600891 -0.45556599
-0.128784 -0.068359397 -0.45361301
-0.013443 0.058868401 -0.44751
-0.34082001 -0.124573 -0.47265601
0.178223 0.121338 -0.4375
-0.00255585 -0.0332947 -0.39233401
-0.167603 -0.162598 -0.45458999
0.275879 -0.080871597 -0.429443
0.28076199 -0.162964 -0.42749
0.0097580003 0.22399899 -0.449707
-0.30639601 -0.14965799 -0.46777299
0.41626 0.188232 -0.430664
-0.286865 0.168457 -0.47167999
-0.22644 0.14001501 -0.46557599
0.077758797 -0.097228996 -0.439697
-0.167236 0.034484901 -0.45971701
0.25512701 0.19043 -0.43554699
-0.34619099 -0.071350098 -0.47363299
-0.15307599 0.245728 -0.46264601
0.229004 -0.17541499 -0.42846701
-0.103882 0.19531301 -0.456543
-0.121582 -0.197144 -0.45068401
-0.22448701 -0.156372 -0.46167001
-0.064941399 0.25854501 -0.45458999
-0.147461 0.114197 -0.45874
0.25732401 0.22106899 -0.43554699
0.28320301 0.236938 -0.43457001
-0.19751 0.203125 -0.4646
0.39843801 -0.052215599 -0.426514
-0.26831099 -0.235107 -0.46264601
0.115723 0.14563 -0.44262701
-0.19445799 0.041259799 -0.46264601
-0.27294901 0.24560501 -0.47070301
0.38501 0.0322266 -0.429443
0.40258801 -0.051727299 -0.422607
0.19152801 -0.17419399 -0.430664
0.0974731 0.231934 -0.44457999
0.11853 -0.059753399 -0.4375
-0.13696299 0.19445799 -0.45971701
0.293457 0.136841 -0.43457001
0.293457 0.202271 -0.43457001
0.40942401 -0.047637898 -0.42163101
-0.021850601 0.042022701 -0.44751
-0.135498 -0.0984497 -0.45458999
0.038909901 0.048004199 -0.44457999
0.33886701 -0.19873001 -0.422607
-0.0135574 0.2229 -0.45166001
-0.24768101 0.20043901 -0.46875
-0.024231 0.208496 -0.45263699
-0.10321 -0.061950698 -0.45361301
0.310303 0.166748 -0.43261701
0.186768 -0.13867199 -0.43359399
0.180298 0.127441 -0.4375
0.016021701 0.189331 -0.44751
0.25707999 -0.141113 -0.42846701
0.26122999 0.065429702 -0.43554699
0.37768599 0.147705 -0.430664
0.34741199 -0.1521 -0.42553699
0.27514601 -0.12695301 -0.42846701
0.32714799 -0.0466309 -0.430664
0.084899902 0.14416499 -0.44457999
-0.28491199 -0.150879 -0.4646
0.25610399 -0.0306549 -0.43359399
0.056823701 -0.22228999 -0.4375
-0.34765601 0.25927699 -0.47582999
-0.146118 -0.100586 -0.45458999
-0.28417999 0.072936997 -0.47070301
-0.257568 -0.200195 -0.46264601
-0.045501702 0.19995099 -0.45263699
-0.14550801 -0.18945301 -0.45263699
0.19494601 -0.0897827 -0.43359399
0.39624 -0.0081405602 -0.42846701
0.39502001 0.0968628 -0.429443
0.14086901 -0.065734901 -0.43652299
0.048583999 -0.230591 -0.4375
-0.33129901 0.080261201 -0.47485399
0.140747 0.247559 -0.44262701
-0.223267 0.0151749 -0.46362299
0.29736301 -0.22021499 -0.42553699
-0.23803701 -0.108887 -0.46264601
0.38793901 0.182129 -0.430664
-0.182983 -0.16284201 -0.45556599
0.333496 0.0162201 -0.43359399
0.19653299 -0.146484 -0.43261701
0.020095799 -0.048156701 -0.44457999
0.206177 -0.12384 -0.43164101
0.42431599 0.042236298 -0.42846701
0.0219879 -0.21972699 -0.44067401
-0.27075201 0.170288 -0.47070301
-0.086303703 0.15600599 -0.45458999
-0.026367201 0.208496 -0.45263699
0.41259801 -0.187866 -0.42041001
0.068176299 0.160889 -0.44457999
-0.0193634 -0.029891999 -0.39648399
0.034820601 0.100464 -0.445557
0.00340652 0.17285199 -0.44872999
-0.26464799 -0.0022849999 -0.46777299
-0.32153299 0.031097399 -0.47363299
-0.090209998 0.0041732802 -0.45263699
-0.21215799 -0.18554699 -0.45874
-0.155762 0.032196 -0.457764
0.26831099 -7.9393401e-05 -0.43359399
-0.0135574 0.244141 -0.45166001
0.114685 -0.0083312998 -0.43847701
0.0600891 0.216187 -0.44653299
0.27734399 -0.130981 -0.42846701
0.097228996 0.118835 -0.44360399
0.349365 0.186157 -0.430664
-0.28637701 0.0043411301 -0.47070301
0.290039 0.23754901 -0.43554699
0.325928 -0.20117199 -0.42358401
-0.24011201 -0.1698 -0.46264601
0.260986 -0.067016602 -0.43164101
-0.165039 0.0474548 -0.45971701
0.15515099 -0.026763899 -0.43652299
0.14465301 -0.139282 -0.43554699
0.39794901 0.16394 -0.430664
0.20874 -0.215698 -0.42846701
-0.0284882 0.24682599 -0.45263699
0.33007801 -0.110413 -0.426514
-0.350586 0.159058 -0.476807
-0.072509803 -0.118225 -0.44872999
0.152832 0.15356401 -0.44165
-0.100647 -0.093505897 -0.45166001
0.15722699 -0.0308685 -0.43652299
0.21679699 0.055358902 -0.43652299
-0.16406301 -0.030151401 -0.456543
-0.222046 0.14001501 -0.46557599
0.196289 0.0163422 -0.43652299
-0.34326199 -0.10675 -0.47265601
0.33886701 0.174805 -0.43261701
-0.34375 -0.060241699 -0.47363299
-0.085022002 -0.162109 -0.44751
0.31103501 0.065124497 -0.43359399
0.171997 0.053405799 -0.4375
0.277832 -0.107117 -0.429443
0.344971 0.00398636 -0.43261701
0.015777601 -0.234253 -0.44067401
-0.040527299 -0.234253 -0.44457999
-0.114136 -0.0385742 -0.45458999
-0.14038099 0.025680499 -0.456543
0.072692901 0.249878 -0.44653299
-0.27612299 -0.14208999 -0.4646
-0.22863799 0.12902801 -0.46557599
-0.051666301 0.023223899 -0.45068401
-0.097228996 0.17553701 -0.45556599
-0.213989 0.041259799 -0.46264601
0.158325 0.086731002 -0.439697
-0.074462898 -0.155762 -0.44751
-0.0133209 -0.219116 -0.44360399
0.20202599 -0.0103226 -0.43554699
-0.060028099 -0.0634766 -0.449707
-0.0134888 0.0090560904 -0.388428
-0.086303703 0.049072299 -0.45458999
0.0075569199 -0.094177201 -0.44457999
-0.16870099 -0.0280609 -0.457764
-0.0585327 0.224365 -0.45458999
0.17248499 0.117493 -0.43847701
0.35327101 -0.154175 -0.42553699
0.0033607499 -0.206177 -0.44262701
-0.117371 -0.209839 -0.45068401
0.036377002 -0.020477301 -0.39453101
0.38574201 -0.220093 -0.42163101
0.210693 -0.105835 -0.43261701
0.344482 -0.16369601 -0.42456099
0.241455 0.133301 -0.43652299
0.14294399 -0.065734901 -0.43652299
-0.0519104 0.104187 -0.45263699
-0.045104999 -0.048614498 -0.44872999
-0.187988 0.121765 -0.46264601
0.140503 -0.137329 -0.43554699
0.13317899 0.0473633 -0.43847701
-0.00071334798 -0.0352173 -0.39331099
0.327393 0.213989 -0.43359399
0.26001 -0.034729 -0.43359399
0.33325201 -0.024368299 -0.430664
0.041198701 0.193115 -0.44653299
-0.342529 -0.21606401 -0.46875
-0.206177 -0.095153801 -0.45971701
0.044982899 -0.079162598 -0.44262701
0.39648399 -0.14709499 -0.422607
0.0085143996 0.0220642 -0.39233401
0.33203101 -0.078308098 -0.426514
-0.32958999 0.25707999 -0.47582999
-0.017761201 0.169434 -0.45068401
0.35229501 -0.22106899 -0.41943401
-0.085022002 -0.178955 -0.44751
0.363525 -0.0041275001 -0.430664
0.25366199 0.248291 -0.43652299
0.177368 0.20715301 -0.44067401
0.080383301 0.0019989 -0.44262701
0.35302699 0.069091797 -0.43261701
0.191772 -0.049224898 -0.43554699
0.142822 0.224731 -0.44262701
0.375732 0.161865 -0.430664
0.377197 -0.058380101 -0.42749
0.36035201 0.245483 -0.43164101
-0.28759801 -0.18396001 -0.46557599
0.24389599 -0.186646 -0.426514
-0.125366 0.14587399 -0.456543
-0.32446301 0.20971701 -0.47485399
0.13867199 0.21008299 -0.44262701
-0.0156174 0.082336403 -0.449707
0.41747999 -0.028228801 -0.42749
-0.060424801 0.0829468 -0.45263699
0.23962399 -0.139404 -0.429443
-0.26464799 -0.033081099 -0.46777299
0.40307599 0.117065 -0.429443
0.25195301 -0.21875 -0.426514
0.18310501 0.22937 -0.439697
-0.29858401 0.133301 -0.47265601
-0.041259799 0.148926 -0.45263699
0.211182 -0.0673218 -0.43359399
0.25244099 -0.16687 -0.42749
-0.0091857901 -0.069213897 -0.445557
-0.25317401 -0.0088653602 -0.46679699
0.343018 -0.196777 -0.422607
0.166748 -0.110413 -0.43457001
0.053192101 -0.105957 -0.44165
-0.017806999 0.218628 -0.45166001
0.042511001 -0.196045 -0.43847701
-0.332764 -0.066894501 -0.47363299
-0.26806599 0.0242004 -0.46972701
0.202393 0.108704 -0.43652299
0.41626 0.042236298 -0.42846701
0.40234399 0.088561997 -0.42846701
0.14807101 0.136353 -0.439697
0.381836 -0.220093 -0.42163101
0.38574201 -0.214111 -0.42163101
0.224976 0.051238999 -0.43652299
-0.213989 0.069518998 -0.46264601
-0.0239105 -0.065185502 -0.44653299
0.315918 0.249268 -0.43457001
-0.20666499 0.26269501 -0.46557599
0.157593 0.036956798 -0.4375
0.42333999 0.157471 -0.429443
-0.23803701 -0.141479 -0.46264601
0.351807 -0.169312 -0.42358401
0.12793 -0.190063 -0.43457001
0.236816 0.071594201 -0.43554699
0.193115 -0.19396999 -0.429443
-0.127441 0.113708 -0.456543
-0.034790002 0.106079 -0.45166001
0.062042199 0.17382801 -0.445557
0.20043901 0.0984497 -0.43652299
-0.0890503 0.25585899 -0.457764
0.37866199 -0.200684 -0.422607
0.192627 0.154175 -0.4375
-0.0584106 0.18335 -0.45361301
0.116516 -0.047393799 -0.4375
-0.26245099 -0.01548 -0.46777299
0.057617199 0.047882099 -0.44360399
0.069458 -0.105469 -0.439697
0.164673 -0.110413 -0.43457001
-0.0517883 0.0126572 -0.45166001
0.34814501 0.18859901 -0.43164101
-0.26806599 0.052917499 -0.46972701
-0.247192 -0.12439 -0.46362299
0.115723 0.18518101 -0.44262701
0.23791499 -0.226685 -0.426514
-0.142822 0.13110401 -0.457764
0.023040799 0.0072326702 -0.388428
0.32177699 -0.185303 -0.42358401
0.22192401 -0.137695 -0.430664
0.083007798 0.23669399 -0.445557
-0.0386963 -0.0548096 -0.44751
-0.249878 0.264404 -0.46875
0.074462898 0.167114 -0.44457999
0.225464 -0.055114701 -0.43359399
-0.13696299 0.2052 -0.45971701
0.404053 0.0323181 -0.430664
-0.015670801 -0.0393066 -0.397461
0.329346 0.13855 -0.43359399
0.42333999 0.209961 -0.429443
0.0220947 -0.16027801 -0.44262701
0.41943401 0.181641 -0.429443
0.20751999 0.241211 -0.43847701
-0.0551758 -0.22583 -0.44457999
0.27343801 -0.228149 -0.42553699
-0.30761701 -0.020095799 -0.47265601
-0.115784 -0.127808 -0.45263699
-0.220093 -0.093444802 -0.46167001
-0.070861802 -0.014946 -0.45166001
-0.16149899 0.22570799 -0.46167001
0.0012788801 -0.22277801 -0.44262701
0.34179699 -0.064575203 -0.42846701
-0.14379901 0.21008299 -0.460693
-0.32543901 -0.13916001 -0.46972701
0.174438 0.14428701 -0.43847701
0.103882 -0.115051 -0.43652299
-0.25488299 -0.23242199 -0.46167001
0.363525 0.196289 -0.430664
0.0304871 -0.052215599 -0.44360399
0.375732 0.202393 -0.430664
-0.22912601 0.25659201 -0.46679699
0.130005 0.145264 -0.44165
-0.079894997 0.0426636 -0.45458999
0.31396499 0.202271 -0.43457001
-0.092346199 -0.034118701 -0.45263699
-0.349121 -0.082641602 -0.47485399
-0.036834698 0.057128899 -0.45068401
-0.28100601 0.25781301 -0.47265601
0.325928 -0.20715301 -0.42358401
0.14636201 -0.106323 -0.43457001
-0.25854501 -0.120239 -0.4646
-0.072204597 -0.243652 -0.44653299
-0.237427 -0.19323701 -0.46167001
0.29418901 -0.0183868 -0.43261701
-0.030075099 -0.207031 -0.44457999
-0.150879 0.26538101 -0.46264601
0.275879 -0.0346375 -0.43261701
-0.061706498 -0.13867199 -0.44653299
0.33764601 0.089599602 -0.43359399
0.311279 -0.182129 -0.42553699
0.25415 -0.099304199 -0.430664
0.055511501 0.037475601 -0.44360399
0.0076599098 0.25 -0.45068401
0.202637 -0.10791 -0.43261701
-0.161865 -0.021560701 -0.456543
0.17126501 -0.22485401 -0.430664
-0.177002 0.191406 -0.46264601
-0.24768101 0.0153427 -0.46875
0.42236301 0.192261 -0.430664
0.0515747 0.13403299 -0.445557
-0.27075201 0.17248499 -0.47070301
0.21935999 -0.175781 -0.429443
-0.0134125 0.0377197 -0.44653299
0.073242202 -0.152344 -0.4375
0.29541001 0.059173599 -0.43457001
-0.12853999 -0.12560999 -0.45263699
0.213257 0.224243 -0.4375
0.363525 0.143677 -0.430664
-0.068603501 -0.082702599 -0.45068401
0.18810999 0.0450745 -0.43652299
0.032501198 -0.143677 -0.44262701
-0.0050544702 0.20336901 -0.45068401
0.043090802 0.050079301 -0.44457999
-0.0413513 0.226074 -0.45361301
0.21264599 0.155884 -0.43652299
0.258057 -0.00415802 -0.43359399
0.107178 0.0310669 -0.44165
-0.0134125 0.0377197 -0.44653299
0.34008801 -0.100342 -0.426514
-0.0198822 0.105835 -0.45068401
0.069152802 -0.162598 -0.4375
0.19702099 -0.091796897 -0.43359399
0.216309 0.122803 -0.43554699
-0.129639 0.040710401 -0.456543
-0.14379901 0.19274899 -0.460693
-0.076416001 -0.241577 -0.44653299
0.116516 -0.051513702 -0.4375
-0.117371 -0.237427 -0.45068401
0.040924098 -0.0772705 -0.44360399
-0.0385742 -7.3671297e-05 -0.40234399
-0.054138198 0.15564001 -0.45361301
0.199219 0.23498499 -0.43847701
0.336914 -0.174927 -0.422607
0.38867199 -0.17089801 -0.422607
0.31201199 -0.17456099 -0.426514
-0.0304871 0.093139596 -0.45068401
0.064269997 0.25610399 -0.44653299
0.058868401 -0.183228 -0.4375
0.090332001 -0.0166473 -0.44067401
0.40942401 -0.17761201 -0.41943401
0.119629 0.091308601 -0.44165
0.285889 -0.198608 -0.426514
0.25512701 0.180176 -0.43554699
-0.094665498 0.025512701 -0.45361301
-0.176636 0.101929 -0.46167001
-0.207031 -0.039154101 -0.46167001
-0.200562 -0.0109406 -0.46167001
0.036315899 -0.233154 -0.43847701
0.29956099 -0.110901 -0.42846701
-0.171509 -0.245361 -0.45361301
-0.136719 -0.212402 -0.45166001
0.266846 0.241089 -0.43457001
-0.095764197 -0.204712 -0.44872999
0.282471 0.079406701 -0.43359399
-0.098266602 -0.13562 -0.45068401
0.228394 -0.197144 -0.42749
0.31665 -0.22168 -0.42456099
0.321289 0.044769298 -0.43359399
-0.27294901 0.177002 -0.47070301
0.055389401 0.0269775 -0.44262701
0.233154 -0.0712891 -0.43261701
0.25097701 0.0818481 -0.43554699
0.288086 -0.0889282 -0.429443
0.35839799 0.121704 -0.43164101
0.154175 -0.19787601 -0.43359399
0.224976 0.15185501 -0.43652299
0.375732 0.046478301 -0.430664
0.27978501 -0.020416301 -0.43261701
0.35424799 0.227173 -0.43164101
-0.14807101 0.21008299 -0.460693
-0.21984901 0.164185 -0.46557599
0.21386699 -0.117493 -0.430664
-0.220581 -0.082763702 -0.46264601
-0.169312 -0.234741 -0.45361301
0.138794 -0.049346901 -0.43652299
0.307129 0.048858602 -0.43359399
0.24182101 0.0141907 -0.43359399
0.119934 0.18518101 -0.44262701
0.122009 0.11853 -0.44262701
-0.112976 0.232788 -0.45874
-0.282471 0.203979 -0.47167999
0.183594 -0.051269501 -0.43554699
-0.147339 -0.22521999 -0.45166001
-0.15856899 0.060424801 -0.45971701
-0.301514 0.173706 -0.47363299
-0.057769801 -0.10553 -0.44872999
0.381836 0.188232 -0.430664
0.303711 0.222656 -0.43457001
0.0160522 0.210815 -0.44872999
0.33447301 -0.155762 -0.42456099
-0.007061 -0.200317 -0.44360399
-0.224243 0.137817 -0.46557599
0.35107401 0.111816 -0.43261701
-0.116516 -0.023651101 -0.45556599
-0.317871 0.180664 -0.47485399
0.32372999 -0.2052 -0.42358401
0.115723 0.139282 -0.44262701
0.165527 -0.00829315 -0.43652299
0.36840799 -0.113892 -0.42456099
0.040191699 -0.020523099 -0.39550799
-0.118958 0.0106506 -0.456543
-0.077941902 0.22277801 -0.45556599
-0.201904 0.179077 -0.4646
0.39624 -0.0482178 -0.426514
-0.23071299 0.155396 -0.46557599
-0.13574199 -0.0322266 -0.45556599
0.289307 0.12866201 -0.43457001
-0.203125 -0.18725599 -0.457764
0.0264282 0.056488 -0.445557
0.411621 -0.21508799 -0.41943401
0.106934 0.012352 -0.44067401
0.113159 0.051727299 -0.44067401
-0.30395499 -0.0664673 -0.47070301
0.332764 0.150391 -0.43261701
0.31689501 -0.112671 -0.42749
0.160767 0.165649 -0.44067401
0.175293 0.244385 -0.44067401
0.136475 0.25170901 -0.44262701
-0.024124101 0.127075 -0.45068401
0.148682 0.174316 -0.44165
-0.30078101 0.0110245 -0.47265601
-0.10675 -0.15685999 -0.45068401
-0.019622801 -0.161011 -0.44457999
0.35229501 0.0080337496 -0.43164101
0.21935999 0.0019588501 -0.43359399
-0.30737299 -0.232178 -0.46557599
-0.0322266 -0.117432 -0.445557
0.31518599 0.13244601 -0.43359399
0.041198701 0.209961 -0.44653299
-0.28906301 0.0154419 -0.47167999
0.288086 -0.0143204 -0.43261701
-0.201904 0.137573 -0.4646
0.248291 -0.113464 -0.430664
-0.341553 -0.089172401 -0.47363299
0.105469 -0.21057101 -0.43457001
0.41332999 0.21606401 -0.429443
0.124695 -0.0391846 -0.4375
-0.22827099 -0.199341 -0.460693
-0.30810499 0.062286399 -0.47363299
0.133789 0.122131 -0.44067401
0.0346069 -0.026107799 -0.39550799
0.30004901 -0.0930176 -0.429443
0.206543 0.0266113 -0.43652299
0.270996 0.124573 -0.43457001
-0.34082001 -0.115662 -0.47265601
0.354736 -0.168945 -0.422607
-0.31494099 0.126831 -0.47363299
-0.281982 -0.248657 -0.46362299
-0.151123 0.0213928 -0.456543
-0.343018 0.058075 -0.47582999
-0.31225601 -0.121582 -0.46972701
0.097228996 0.108398 -0.44360399
0.0097122202 0.151489 -0.44751
0.205566 -0.032775901 -0.43457001
0.163574 -0.223267 -0.43164101
-0.319336 0.060058601 -0.47363299
-0.0237427 -0.22534201 -0.44360399
-0.064941399 0.213745 -0.45458999
-0.305664 -0.114929 -0.46972701
-0.090393104 0.100159 -0.45361301
0.18481401 0.158691 -0.43847701
0.144897 0.21850599 -0.44262701
0.0302734 -0.196899 -0.44067401
0.14624 0.120056 -0.44067401
-0.32324201 -0.163452 -0.46972701
0.109558 -0.21264599 -0.43457001
-0.159668 0.241455 -0.46264601
-0.26464799 -0.20715301 -0.46362299
0.054748502 -0.230591 -0.4375
0.044891398 -0.14123499 -0.44165
0.317139 -0.034484901 -0.430664
0.232178 -0.030731199 -0.43457001
-0.31835899 -0.221191 -0.46557599
-0.14501999 0.0515747 -0.457764
-0.13793901 -0.0215149 -0.45556599
0.163452 0.0122375 -0.43652299
0.070251502 0.14624 -0.44457999
0.0179596 -0.112732 -0.44360399
-0.077941902 0.25707999 -0.45556599
-0.083618201 -0.076538101 -0.45166001
0.39624 0.064392097 -0.42846701
0.0176544 0.016449001 -0.39038101
-0.000802517 -0.24353001 -0.44262701
-0.142212 -0.0043678302 -0.45556599
0.288086 -0.101074 -0.429443
0.16992199 0.102783 -0.4375
-0.101074 -0.053405799 -0.45361301
0.168823 -0.102234 -0.43457001
0.18432599 0.090454102 -0.4375
-0.28637701 0.177002 -0.47070301
0.40527299 0.10498 -0.429443
0.113403 0.087097198 -0.44165
0.28857401 -0.134766 -0.42749
-0.224976 -0.039245602 -0.46264601
0.40307599 0.193848 -0.429443
0.12939499 0.082580604 -0.439697
0.27124 -0.130981 -0.42846701
-0.31054699 0.120178 -0.47363299
-0.079711899 0.0361633 -0.45361301
-0.23840301 0.23083501 -0.46777299
0.190552 0.14807101 -0.4375
-0.139404 0.251221 -0.460693
0.13403299 -0.177856 -0.43457001
0.040710401 -0.037445098 -0.44165
0.0704346 0.222046 -0.445557
0.289307 0.200195 -0.43457001
0.086181603 -0.0290833 -0.44067401
0.28857401 0.0162201 -0.43359399
-0.25927699 0.15893599 -0.46972701
0.147705 0.0597229 -0.43847701
0.25097701 0.133057 -0.43554699
0.203979 -0.00212669 -0.43554699
-0.22863799 0.249512 -0.46557599
0.36303699 -0.078491203 -0.42749
-0.032165501 -0.184082 -0.44457999
-0.062560998 0.057372998 -0.45263699
-0.25976601 -0.21765099 -0.46264601
-0.217896 -0.082580604 -0.46167001
-0.12866201 0.25976601 -0.460693
0.181519 -0.0205536 -0.43554699
-0.030151401 -0.13415501 -0.445557
-0.31396499 -0.22778299 -0.46557599
0.302246 0.247803 -0.43554699
0.35961899 0.19018599 -0.430664
0.38622999 -0.0222473 -0.42846701
0.218872 0.19702099 -0.43652299
-0.27880901 -0.20373499 -0.46557599
-0.109375 -0.09375 -0.45263699
-0.041168202 0.0593872 -0.45166001
0.032714799 0.1026 -0.445557
-0.198364 -0.20410199 -0.456543
0.31445301 0.0365295 -0.43261701
-0.131836 -0.0022296901 -0.456543
-0.237305 0.069946297 -0.46557599
0.35034201 0.048614498 -0.43164101
-0.157959 -0.00223541 -0.457764
0.098632798 -0.0125122 -0.44067401
0.252197 -0.113464 -0.430664
0.25610399 -0.026580799 -0.43359399
0.13208 0.149414 -0.44165
0.036834698 0.0354614 -0.44457999
-0.186279 -0.060485799 -0.45874
0.149414 0.0492859 -0.4375
0.192139 0.057403602 -0.43652299
0.407471 -0.118713 -0.41357401
0.16748001 -0.0329285 -0.43652299
-0.31054699 0.162476 -0.47363299
0.095153801 0.110474 -0.44360399
-0.33715799 -0.146118 -0.47070301
0.383057 0.115051 -0.429443
0.0220947 -0.151978 -0.44262701
-0.257568 -0.19152801 -0.46264601
-0.202271 -0.062866203 -0.460693
0.296875 0.18139599 -0.43359399
-0.27075201 -0.068115197 -0.46679699
-0.22277801 -0.0283661 -0.46264601
0.198364 0.086120598 -0.43652299
-0.32446301 0.218628 -0.47485399
0.154541 -0.128784 -0.43457001
0.17285199 -0.122681 -0.43457001
-0.20874 -0.101868 -0.460693
-0.24292 -0.102539 -0.46362299
0.28735399 -0.122986 -0.42846701
0.098205604 -0.0537109 -0.43847701
-0.23791499 0.221558 -0.46679699
0.079650901 -0.117615 -0.43847701
-0.171143 0.0042305002 -0.45874
0.0075225802 -0.15820301 -0.44262701
-0.0112839 -0.083862297 -0.445557
-0.230957 -0.16284201 -0.46167001
0.151489 0.067810103 -0.4375
0.26538101 -0.234253 -0.42553699
-0.29126 0.150757 -0.47167999
-0.179565 0.25927699 -0.46362299
0.385986 -0.23083501 -0.41943401
0.37890601 0.135254 -0.429443
0.41235399 0.112793 -0.42846701
0.30835 0.026367201 -0.43261701
-0.31005901 -0.12597699 -0.46972701
0.120178 0.22314499 -0.44360399
0.063415498 -0.12439 -0.44067401
0.320557 0.040588401 -0.43261701
0.40234399 -0.034179699 -0.426514
0.0487976 -0.177856 -0.439697
0.089294396 -0.22949199 -0.43554699
-0.00080966903 0.054534901 -0.44653299
0.0139236 0.122009 -0.44751
0.171997 0.106934 -0.4375
0.35229501 0.0222473 -0.43164101
-0.034881599 0.219116 -0.45263699
0.36499 -0.21557599 -0.42041001
-0.256836 -0.238892 -0.46167001
0.073120102 -0.195068 -0.43652299
-0.17846701 0.041076701 -0.460693
-0.149414 -0.208252 -0.45166001
-0.060272198 0.0232697 -0.45166001
0.042694099 -0.16992199 -0.44067401
-0.085022002 -0.24218801 -0.44751
0.055145301 -0.0249481 -0.44067401
-0.159668 -0.0258484 -0.456543
-0.112244 0.021346999 -0.45556599
-0.276611 -0.122742 -0.46557599
-0.101501 0.16271999 -0.45556599
-0.0259552 -0.085998498 -0.445557
0.32324201 0.13855 -0.43359399
0.2771 0.108215 -0.43457001
-0.086303703 0.046936002 -0.45458999
-0.17749 0.25048801 -0.46362299
-0.151123 -0.0108185 -0.456543
0.405518 -0.098693803 -0.41943401
-0.29638699 0.137695 -0.47265601
0.28393599 -0.0122833 -0.43261701
-0.188843 -0.088684097 -0.45971701
-0.060272198 0.019027701 -0.45166001
0.167969 -0.17297401 -0.43261701
-0.284668 0.0176544 -0.47167999
