# .PCD v0.7 - Point Cloud Data file format
VERSION 0.7
FIELDS x y z
SIZE 4 4 4
TYPE F F F
COUNT 1 1 1
WIDTH 1467
HEIGHT 1
VIEWPOINT 0 0 0 1 0 0 0
POINTS 1467
DATA ascii
0.086242698 0.34082001 -0.59912097
0.183594 0.096496597 -0.60400403
-0.180176 0.20422401 -0.59521502
0.24975599 0.20800801 -0.60595697
-0.0938721 0.12085 -0.59814501
0.206177 -0.037414599 -0.220825
0.25854501 -0.027496301 -0.32421899
0.113953 -0.0287476 -0.40649399
1.41992 0.51269501 -1.6543
0.345947 -0.0132446 -0.55908197
1.34961 0.429932 -1.45215
0.2146 -0.0061111501 -0.63720697
0.292725 0.0028247801 -0.625
0.36108401 0.077453598 -0.61132801
-0.35497999 0.0111237 -0.59716803
-0.14624 -0.171387 -0.36425799
-0.035064701 0.200928 -0.60205102
-0.19946299 0.25415 -0.59423798
0.134766 0.26879901 -0.60205102
1.27246 0.094970703 -1.5585901
0.32177699 0.31738299 -0.59228498
-0.148315 0.069397002 -0.59130901
0.391357 0.14807101 -0.618164
0.256836 0.335693 -0.58984399
-0.144043 0.16528299 -0.59619099
0.050109901 0.156372 -0.60497999
-0.392822 0.30761701 -0.59521502
-0.117249 -0.042633101 -0.19274899
0.0131531 0.225098 -0.60595697
-0.135864 0.204834 -0.59716803
-0.430664 0.0532532 -0.59716803
0.291504 0.163452 -0.61035198
0.216309 0.15429699 -0.60790998
0.41210899 0.040069599 -0.61035198
-0.25170901 0.052795399 -0.59228498
1.24121 0.30273399 -1.34277
0.355225 -0.0187988 -0.39843801
0.17297401 0.050445601 -0.59716803
0.16784699 -0.082397498 -0.180664
0.70410198 0.24218801 -0.90429699
-0.25195301 0.26757801 -0.59326202
0.2854 0.255371 -0.59716803
0.466553 0.335693 -0.61035198
-0.42773399 0.130127 -0.58886701
0.26757801 0.074218802 -0.60790998
0.112915 0.202271 -0.60595697
0.0114594 -0.028656 -0.320068
-0.222168 0.156616 -0.59521502
-0.407471 0.221191 -0.58789098
-0.221802 0.214966 -0.59423798
-0.026489301 0.149414 -0.60009801
-0.22228999 -0.025711101 -0.389404
-0.323975 -0.00304985 -0.62402302
-0.102844 0.237305 -0.60107398
0.36889601 0.074462898 -0.61035198
-0.303711 0.32226601 -0.59619099
-0.0215149 -0.00155449 -0.318115
-0.31054699 0.23339801 -0.59814501
0.026351901 0.0059242202 -0.318115
0.432861 0.24707 -0.61132801
-0.119019 0.00831604 -0.59716803
0.313721 0.109619 -0.61425799
-0.068481401 0.336914 -0.59716803
0.074096702 0.022171 -0.59228498
1.31934 0.36547899 -1.49512
0.113281 0.14856 -0.60790998
-0.24353001 -0.021057099 -0.63622999
0.073486298 -0.036437999 -0.241943
0.032714799 0.27880901 -0.59912097
0.17163099 -0.0098190298 -0.51660198
0.0101166 0.081054702 -0.59521502
-0.24768101 0.31005901 -0.58886701
1.0166 0.0415955 -1.11133
-0.141479 0.320068 -0.59716803
-1.08398 -1.9248 -3.7539101
0.116821 -0.0152435 -0.64306599
-0.295654 0.0443726 -0.59130901
0.075500503 0.252197 -0.60302699
1.4414099 0.67968798 -1.49121
-0.059753399 0.0557556 -0.59423798
0.181641 0.21972699 -0.60693401
0.34375 0.20800801 -0.60595697
1.41211 0.71533197 -1.67188
-0.19494601 0.0525208 -0.58886701
1.41211 0.53125 -1.66309
0.16113301 0.139282 -0.60497999
0.46264601 0.158325 -0.62402302
0.045990001 -0.028381299 -0.35424799
0.163086 0.342529 -0.60205102
0.080993697 0.096130401 -0.60205102
-0.25292999 0.103455 -0.59521502
-0.138184 0.123047 -0.59521502
-0.0234985 0.29418901 -0.59619099
0.35693401 -0.0134583 -0.56787097
0.273193 -0.0301666 -0.29101601
0.355225 -0.0131073 -0.46167001
-0.29199201 0.32446301 -0.59521502
1.27148 0.182861 -1.55762
0.327393 0.31738299 -0.59228498
-0.037902799 0.24902301 -0.60205102
0.12988301 -0.0203094 -0.391357
-0.18725599 0.108276 -0.59130901
1.41504 0.84082001 -1.51563
-0.246582 0.25927699 -0.59326202
-0.35546899 0.098327599 -0.59814501
-0.051361099 0.047393799 -0.59423798
0.18176299 -0.036010701 -0.25488299
-0.319336 0.191406 -0.59912097
0.95068401 0.0305176 -1.08887
0.4021 0.25146499 -0.60790998
-0.30078101 0.13269 -0.60107398
-0.28417999 0.22692899 -0.59619099
0.055816699 0.142212 -0.60497999
0.260254 0.30835 -0.59130901
0.40917999 0.040069599 -0.61035198
-0.40820301 0.30395499 -0.59326202
0.25048801 0.033813499 -0.60107398
-0.400635 0.135864 -0.58984399
-0.33129901 0.25170901 -0.59521502
-0.197266 0.333496 -0.59619099
-0.240356 -0.0269012 -0.380371
0.252197 0.224731 -0.60497999
-0.0710449 0.32177699 -0.59521502
-0.163452 -0.021163899 -0.63915998
0.68994099 0.29980499 -0.88622999
1.3320301 0.83300799 -1.64063
-0.09375 0.10376 -0.59716803
-0.017089801 0.0104446 -0.31909201
0.219116 0.13708501 -0.60790998
0.27197301 0.146484 -0.61132801
1.34961 0.43261701 -1.43848
-0.043548599 0.206543 -0.60205102
-0.085022002 -0.044403099 -0.17163099
-0.22583 0.016540499 -0.58984399
0.134766 0.260254 -0.60205102
-0.207764 0.150757 -0.59423798
0.13830601 0.196289 -0.60497999
-0.34619099 0.038879398 -0.59228498
-0.094360404 0.197754 -0.60107398
0.43579099 0.343018 -0.60302699
-0.35302699 0.161865 -0.59423798
1.24805 0.301514 -1.30957
-0.38622999 0.188232 -0.58886701
0.141113 0.0028476701 -0.63037097
0.37255901 0.136108 -0.616211
0.211914 0.27465799 -0.59619099
0.095886201 -0.104675 -0.25292999
0.015716599 0.072631799 -0.59521502
0.049469002 0.32836899 -0.59716803
-0.15222199 0.265625 -0.59521502
-0.404053 0.23339801 -0.59130901
-0.084106401 -0.028457601 -0.37744099
1.4375 0.66894501 -1.54785
0.320068 0.127197 -0.61523402
0.67773402 0.0031375899 -0.694336
0.303711 -0.0060348501 -0.62939501
0.19702099 -0.0123215 -0.52002001
0.16784699 -0.0849609 -0.180664
0.474365 0.164307 -0.62402302
0.066955604 0.252197 -0.60302699
0.218384 -0.0287476 -0.32104501
0.0175323 0.016555799 -0.32104501
-0.26049799 0.075195298 -0.59326202
0.15820301 0.14501999 -0.60497999
0.35229501 0.210815 -0.60595697
0.128906 0.064880401 -0.60107398
-0.051361099 0.0557556 -0.59423798
1.38574 0.54882801 -1.66895
0.058075 0.33789101 -0.59912097
-0.0095062302 0.300293 -0.59716803
0.0473633 0.17089801 -0.60595697
-0.0451965 -0.038421601 -0.226807
-0.29711899 0.069702096 -0.59423798
-0.186768 0.343018 -0.59814501
-0.14965799 0.151245 -0.59619099
-0.054626498 0.26196301 -0.59912097
-0.18725599 0.102722 -0.59130901
0.167603 -0.030853299 -0.27294901
0.244019 0.30615199 -0.59228498
0.122314 -0.0061378502 -0.64013702
-0.41674799 0.0869141 -0.59716803
0.43579099 0.255615 -0.61132801
-0.26122999 -0.0257721 -0.39038101
0.38501 0.313232 -0.59521502
0.244507 0.085510299 -0.60693401
0.066284202 0.067260697 -0.59716803
-0.267822 0.18518101 -0.59716803
-0.20507801 0.220581 -0.59423798
-0.45166001 -0.0119705 -0.63037097
-0.134644 0.0611572 -0.59228498
-0.42285201 0.32104501 -0.59423798
-0.134766 0.0084228497 -0.60497999
0.3479 -0.020477301 -0.39453101
1.24414 0.315918 -1.31836
0.178223 0.102356 -0.60497999
0.190552 0.21728501 -0.60790998
1.30371 0.85009801 -1.64355
0.078185998 -0.039337199 -0.238892
-0.085143998 0.31665 -0.59619099
0.25292999 0.19116201 -0.60693401
-0.39648399 0.23376501 -0.59228498
-0.343018 0.24939001 -0.59619099
0.41528299 0.113464 -0.61914098
0.30322301 0.244995 -0.59912097
1.33105 0.36328101 -1.5166
0.19958501 0.056426998 -0.60107398
-0.29663101 -0.00304031 -0.62207001
-0.17834499 -0.0393066 -0.260986
0.40478501 0.0142822 -0.61230499
0.111816 0.33007801 -0.60009801
0.68603498 0.32299799 -0.88134801
-0.085876502 0.14123499 -0.60107398
1.41113 0.83105499 -1.5117199
-0.301025 0.333496 -0.59619099
0.189575 0.34179699 -0.59619099
0.452393 -0.0139618 -0.49169901
-0.133057 0.283447 -0.59716803
0.20166001 0.154053 -0.60693401
0.442871 0.31201199 -0.609375
-0.189209 0.277832 -0.59716803
-0.413086 0.138184 -0.58789098
0.46484399 0.20666499 -0.61914098
0.469971 0.119873 -0.62207001
-0.150391 0.0111618 -0.59912097
0.247925 -0.034118701 -0.258789
0.39770499 0.14550801 -0.61914098
-0.36108401 0.092712402 -0.59814501
-0.197266 0.33056599 -0.59619099
0.40991199 0.048736598 -0.61132801
0.0129776 0.101135 -0.59814501
-0.177368 0.215332 -0.59521502
0.23339801 -0.018279999 -0.48388699
1.2666 0.107178 -1.42773
1.42188 0.53564501 -1.6289099
0.184448 0.216919 -0.60693401
0.0772705 0.053070098 -0.59521502
-0.29394501 0.17456099 -0.59912097
0.127197 0.213623 -0.60595697
-0.25952101 -0.0257721 -0.39038101
-0.26416001 0.120239 -0.59521502
-0.0241089 -0.0282593 -0.33325201
0.030304 0.20544399 -0.60693401
-0.094360404 0.21472199 -0.60107398
0.32226601 0.14428701 -0.61425799
-0.42919901 0.0250702 -0.59521502
0.129517 0.102173 -0.60400403
0.31347701 0.311768 -0.59228498
-0.14636201 0.117249 -0.59423798
-0.297607 0.338379 -0.59521502
1.38965 0.66845697 -1.67285
0.018722501 0.260254 -0.60205102
1.3007801 0.93115199 -1.65137
0.253418 0.088561997 -0.60790998
0.25659201 0.039520301 -0.60205102
-0.0294037 0.181152 -0.60205102
-0.37866199 -0.0235138 -0.62207001
0.242432 0.24340799 -0.60205102
0.160767 0.26416001 -0.60400403
-0.27294901 0.269043 -0.59619099
-0.217529 0.0609436 -0.58984399
0.486572 0.0143967 -0.61718798
0.029068001 -0.0341492 -0.31518599
0.67334002 0.0096969604 -0.696289
-0.41113299 0.33398399 -0.59716803
-0.22143599 0.0138397 -0.59326202
0.078918502 -0.027664199 -0.34521499
0.176147 -0.038543701 -0.199707
1.4804699 0.52929699 -1.50195
1.1601599 0.059692401 -1.27441
0.080627397 0.273193 -0.59912097
0.0673218 0.16235401 -0.60595697
0.39355499 0.248657 -0.60790998
0.36230499 0.338379 -0.58984399
-0.0150757 0.33300799 -0.59521502
0.307129 0.054138198 -0.60693401
-0.096374497 0.319336 -0.59619099
-0.14965799 0.21850599 -0.59619099
0.30297899 -0.0156097 -0.47167999
-0.0402527 0.0586548 -0.59521502
-0.42163101 0.33056599 -0.59619099
0.089294396 -0.0121765 -0.64111298
0.37646499 -0.000111401 -0.60790998
0.198486 0.085388198 -0.60595697
0.098693803 0.20800801 -0.60595697
0.453857 0.18652301 -0.62011701
0.155396 -0.030380201 -0.307129
-0.0095367404 0.115417 -0.59912097
-0.25976601 -0.030242899 -0.37744099
0.39965799 0.083496101 -0.61328101
0.73730499 0.27002001 -0.89843798
-0.24218801 0.151245 -0.59619099
-0.062927201 0.27539101 -0.59814501
1.29492 0.19043 -1.55957
0.453857 0.307861 -0.61230499
-0.026580799 0.20373499 -0.60205102
0.184448 0.22827099 -0.60693401
-0.25610399 0.221313 -0.59619099
0.16394 0.15356401 -0.60497999
1.41113 0.78222698 -1.52637
-0.313721 0.182983 -0.59912097
-0.17211901 0.18774401 -0.59619099
0.313721 0.22106899 -0.60302699
-0.115112 -0.041015599 -0.193726
0.26293901 0.32519501 -0.59130901
-0.0968628 0.135132 -0.59912097
0.169678 -0.040222201 -0.19873001
-0.39086899 0.222656 -0.59228498
0.086547904 0.31079099 -0.60107398
0.216309 0.142822 -0.60790998
0.115784 0.119629 -0.60595697
-0.220825 -0.0090179397 -0.63134801
0.13501 0.30053699 -0.60302699
-0.33129901 0.25732401 -0.59521502
-0.14965799 0.14843801 -0.59619099
-0.231445 0.28564501 -0.58984399
-0.30835 -0.0207977 -0.62841803
0.19238301 0.32226601 -0.59619099
1.40137 0.89453101 -1.66895
-0.42333999 0.189087 -0.58300799
0.0099563599 0.0134888 -0.320068
-0.323975 0.050018299 -0.59228498
-0.135864 0.26367199 -0.59716803
-0.44653299 -0.020889301 -0.63134801
0.244507 0.088378899 -0.60693401
0.238159 -0.000115097 -0.62841803
0.075439498 -0.0292053 -0.34423801
-0.123047 -0.0179596 -0.63232398
0.107239 -0.035156298 -0.24890099
0.301514 0.097900398 -0.61328101
-0.35327101 0.121033 -0.59912097
-0.285889 0.078125 -0.59423798
0.20373499 -0.0215912 -0.38134801
0.060791001 0.28100601 -0.59814501
0.184448 0.21972699 -0.60693401
-0.14917 0.108826 -0.59423798
0.075988799 0.154053 -0.60693401
0.33056599 0.059936501 -0.60790998
0.28637701 0.201904 -0.60497999
-0.175171 0.33398399 -0.59716803
1.27344 0.26074201 -1.5429699
-0.068603501 0.26708999 -0.59814501
0.273682 -0.0300598 -0.290039
1.46777 0.52783197 -1.51855
-0.25903299 -0.033691399 -0.37646499
0.70361298 0.25317401 -0.89843798
0.203613 0.28295901 -0.59619099
0.00539017 -0.0313721 -0.317139
0.29663101 0.022583 -0.60302699
-0.16784699 0.061035201 -0.59130901
1.27441 0.109741 -1.2998
0.301514 0.263428 -0.59619099
0.150757 0.0058403001 -0.63330102
0.36718801 0.31225601 -0.59326202
1.43848 0.727539 -1.4882801
-0.204712 0.114258 -0.59326202
0.25488299 0.25292999 -0.59814501
1.39746 0.66845697 -1.67285
-0.39990199 0.292725 -0.59326202
-0.26464799 0.327393 -0.58984399
0.461182 0.119873 -0.62207001
0.0269928 0.33398399 -0.59716803
-0.13281301 0.30810499 -0.59619099
-0.0067214998 0.115417 -0.59912097
0.265625 0.14624 -0.61035198
-0.031951901 0.336914 -0.59716803
-0.112427 0.063903801 -0.59228498
0.20214801 0.0534973 -0.60009801
0.47582999 0.184204 -0.62207001
0.33984399 0.183228 -0.609375
-0.119324 -0.0396729 -0.221802
1.26465 0.35302699 -1.2959
-0.116577 0.22241201 -0.59912097
0.44799799 0.279053 -0.61230499
0.36035201 -0.0082626296 -0.578125
-0.216187 0.223389 -0.59423798
0.115417 0.096496597 -0.60400403
0.46557599 0.064025901 -0.62011701
1.32227 0.9375 -1.64844
-0.34863299 0.263428 -0.59619099
0.416504 0.34130901 -0.60009801
0.0244751 0.255615 -0.60400403
-0.23461901 0.058258101 -0.59130901
0.36425799 0.202637 -0.60693401
-0.25268599 0.33447301 -0.58789098
0.17211901 -0.0353394 -0.267822
-0.326904 0.047210701 -0.59228498
0.27856401 -0.0175323 -0.41259801
-0.30346701 0.16662601 -0.60107398
0.095825203 0.225098 -0.60595697
0.24182101 -0.0353394 -0.258789
0.20410199 0.093933098 -0.60595697
0.124329 0.173706 -0.60595697
-0.421875 0.17749 -0.58105499
1.28223 0.21875 -1.55273
-0.439697 -0.032714799 -0.63037097
0.29541001 -0.0077018701 -0.53906298
1.4101599 0.78857398 -1.52539
-0.20458999 -0.018066401 -0.63622999
0.248169 0.100159 -0.609375
0.140991 0.30395499 -0.60400403
0.207764 0.33398399 -0.59228498
0.15185501 0.070678703 -0.60205102
-0.034759499 0.32568401 -0.59716803
-0.25195301 0.26757801 -0.59326202
1.19727 0.073974602 -1.31543
-0.172363 0.33398399 -0.59716803
0.44726601 0.0113831 -0.61132801
0.097412102 -0.0771484 -0.19067401
-0.21899401 0.20105 -0.59423798
1.24414 0.269043 -1.3320301
0.241211 0.0112915 -0.60595697
0.166748 0.150635 -0.60497999
0.0771484 0.050170898 -0.59423798
0.39721701 0.122009 -0.618164
0.17590301 -0.0378723 -0.21179201
-0.322754 0.118408 -0.60009801
-0.15100101 -0.037689202 -0.275879
-0.201904 0.11145 -0.59326202
-0.364014 0.0899048 -0.59814501
0.0073432899 0.098144501 -0.59716803
1.4726599 0.524414 -1.50879
0.40917999 0.24096701 -0.61035198
-0.074707001 0.161255 -0.60205102
0.057983398 0.328857 -0.59814501
-0.26122999 -0.033508301 -0.374268
0.26293901 0.311279 -0.59130901
-0.25659201 0.151489 -0.59716803
0.72265601 0.222656 -0.91113299
-0.113953 0.20874 -0.60009801
-0.275635 0.092407197 -0.59619099
-0.33789101 0.28076199 -0.59716803
-0.157471 0.26245099 -0.59423798
0.27197301 0.146484 -0.61132801
0.47021499 0.330322 -0.61132801
0.33398399 0.109619 -0.61425799
-0.31567401 -0.0149612 -0.63134801
0.047424302 0.188354 -0.60693401
-0.113037 0.33300799 -0.59521502
0.173218 -0.000117123 -0.63915998
-0.36303699 0.150269 -0.59228498
0.36377001 0.022689801 -0.60595697
-0.049224898 0.19531301 -0.60205102
-0.17932101 0.069518998 -0.59228498
0.36303699 0.32519501 -0.59130901
-0.25366199 0.151489 -0.59716803
0.20214801 0.050689701 -0.60009801
-0.41577101 0.164673 -0.58398402
-0.4021 0.23938 -0.59228498
-0.369629 0.0899048 -0.59814501
0.060394298 -0.032074001 -0.32421899
0.33764601 0.25390601 -0.60009801
0.152344 0.25830099 -0.60400403
-0.36767599 0.033477802 -0.59521502
0.40991199 0.00575638 -0.62402302
0.0634766 0.067260697 -0.59716803
-0.34643599 0.213257 -0.59716803
0.0789795 0.160034 -0.60790998
-0.17797901 0.33129901 -0.59716803
0.15271001 -0.030990601 -0.299072
1.3945301 0.73339802 -1.6601599
0.29858401 0.31616199 -0.58984399
0.103333 0.27636701 -0.60009801
0.456543 -0.0057258601 -0.59716803
-0.149902 0.179565 -0.59716803
0.38622999 0.074462898 -0.61035198
0.445068 0.093200698 -0.62011701
-0.44409201 -0.0120087 -0.63232398
0.0017423599 0.170044 -0.60302699
-0.38501 0.33056599 -0.59619099
-0.040527299 0.26196301 -0.59912097
-0.079284698 0.058563199 -0.59423798
-0.155029 0.21814001 -0.59521502
0.40917999 0.243774 -0.61035198
0.16113301 0.13073701 -0.60497999
0.0101624 0.103943 -0.59814501
-0.22863799 0.047058102 -0.58984399
-0.030990601 -0.034820601 -0.30810499
0.29956099 0.0113449 -0.609375
-0.34643599 0.213257 -0.59716803
0.195557 0.168091 -0.60595697
0.20629901 -0.0201263 -0.47363299
0.33789101 0.172363 -0.61132801
-0.455322 -0.0089645404 -0.62744099
0.25634801 0.177246 -0.60790998
0.077941902 0.32714799 -0.60009801
-0.101746 -0.080627397 -0.244873
-0.046478301 0.218262 -0.60302699
-0.122986 0.022049 -0.58886701
0.227173 0.25048801 -0.59912097
-0.27807599 0.083862297 -0.59521502
-0.19946299 0.181519 -0.59423798
0.141113 0.17626999 -0.60497999
0.75927699 0.223389 -0.91455102
0.063598603 0.075805701 -0.59814501
0.34204099 0.106567 -0.61328101
-0.0141296 -0.022644 -0.320068
-0.0066986098 0.29199201 -0.59716803
-0.071411103 0.109558 -0.59814501
-0.29516599 0.0276489 -0.58984399
0.072875999 0.142212 -0.60497999
0.281982 0.26049799 -0.59619099
0.41601601 0.169067 -0.62011701
0.055999801 0.236816 -0.60693401
0.25830099 0.068298303 -0.60595697
1.39551 0.62060499 -1.6709
-0.35913101 -0.018005401 -0.63427699
1.2207 0.202393 -1.53906
-0.057250999 0.32568401 -0.59716803
-0.190063 0.116638 -0.59130901
-0.29443401 0.29882801 -0.59423798
1.24219 0.31860399 -1.33008
0.25512701 -0.031311002 -0.30200201
0.16992199 0.213623 -0.60595697
0.100464 -0.0419617 -0.189697
-0.32617199 0.13269 -0.60107398
-0.198364 -0.0120621 -0.63525403
0.44653299 0.29541001 -0.61035198
0.317871 0.282471 -0.59521502
0.12915 0.28027299 -0.60205102
0.0415955 0.25024399 -0.60497999
-0.209106 -0.0326843 -0.38549799
0.12731899 0.131226 -0.60693401
0.180664 0.087951697 -0.60400403
0.0102692 0.170288 -0.60400403
0.351807 0.045410201 -0.60497999
-0.42553699 0.27172899 -0.58984399
1.44238 0.538086 -1.56836
0.31494099 0.160767 -0.61132801
0.27002001 0.19116201 -0.60693401
-0.13867199 0.18518101 -0.59716803
0.080627397 0.332275 -0.59912097
0.456543 0.037292499 -0.61230499
-0.29296899 0.27514601 -0.59716803
0.23803701 0.31396499 -0.59130901
-0.129761 0.092224099 -0.59521502
0.26708999 -0.029190101 -0.29492199
0.26269501 0.048095699 -0.60302699
1.25586 0.111755 -1.40137
-0.16333 0.24340799 -0.59521502
1.18945 0.262207 -1.50977
0.182373 0.296143 -0.60009801
-0.215454 0.30615199 -0.59228498
-0.10498 0.30590799 -0.59716803
-0.125 0.23376501 -0.59912097
0.391357 0.234741 -0.609375
0.17553701 -0.036224399 -0.213745
0.32666001 -0.018279999 -0.48388699
-0.25610399 0.23535199 -0.59619099
0.37646499 -0.000111401 -0.60790998
-0.144043 0.142822 -0.59619099
-0.41455099 0.108826 -0.59423798
-0.201904 0.0947266 -0.59326202
-0.0095062302 0.28906301 -0.59716803
-0.15356401 -0.034881599 -0.32202101
-0.280518 0.080932602 -0.59423798
-0.25610399 0.14563 -0.59619099
0.38867199 0.109619 -0.61425799
-0.37475601 0.17285199 -0.59326202
0.46484399 0.134644 -0.62304699
-0.439697 -0.0150299 -0.63427699
-0.280518 -0.0236359 -0.625
-0.037902799 0.246216 -0.60205102
0.27002001 0.19116201 -0.60693401
-0.0153427 -5.75185e-05 -0.31420901
0.176636 0.0591431 -0.60009801
1.3632801 0.84570301 -1.65137
-0.247192 0.323486 -0.58789098
-0.38671899 0.29321301 -0.59423798
1.2460901 0.265625 -1.31445
-0.16394 0.33129901 -0.59716803
0.23339801 0.102844 -0.60790998
0.27636701 0.26049799 -0.59619099
0.47045901 0.30639601 -0.61523402
0.74755901 0.182739 -0.92627001
0.0045547499 0.124084 -0.60009801
0.133057 0.131226 -0.60693401
0.28149399 0.0085372897 -0.61328101
-0.13024899 0.187988 -0.59716803
0.0377197 -0.036865201 -0.31298801
0.182007 0.306885 -0.59912097
-0.19665501 0.192627 -0.59423798
0.45581099 0.0343628 -0.61132801
-0.317139 0.149414 -0.60009801
0.313721 0.124084 -0.61425799
-0.046325698 0.163818 -0.60107398
-0.104614 0.31884801 -0.59521502
-0.35156301 0.215698 -0.59619099
0.132202 0.28637701 -0.60302699
0.124817 -0.036956798 -0.23791499
-0.065673798 0.0869141 -0.59716803
0.33520499 0.172363 -0.61132801
-0.332275 0.041656502 -0.59228498
-0.245728 0.0443726 -0.59130901
0.121643 0.022201501 -0.59326202
-0.18225101 -0.0030841799 -0.63134801
0.32666001 0.0397949 -0.60595697
-0.255615 0.095031701 -0.59521502
0.40917999 0.235229 -0.61035198
1.42188 0.522461 -1.61133
0.078735404 0.24218801 -0.60595697
-0.409668 0.0194855 -0.59521502
-0.35546899 0.078613304 -0.59814501
-0.25854501 0.198608 -0.59521502
1.29883 0.29296899 -1.52148
0.328857 0.068725601 -0.61035198
-0.16333 0.24340799 -0.59521502
0.35986301 0.29370099 -0.59521502
-0.023162801 -0.019622801 -0.320068
0.24768101 -0.019195599 -0.45166001
0.239136 0.13146999 -0.60790998
0.269043 0.0947266 -0.61132801
0.480225 0.11438 -0.62402302
-0.134277 0.049835201 -0.58984399
0.77539098 0.20715301 -0.91845697
0.098022498 0.087646499 -0.60205102
-0.13415501 -0.036865201 -0.290039
-0.113586 0.179932 -0.59814501
0.043853801 0.28906301 -0.59716803
-0.196899 -0.0303955 -0.37939501
-0.168945 -0.0121002 -0.63720697
-0.38476601 0.163818 -0.59130901
-0.0206299 0.058563199 -0.59423798
0.426514 0.30761701 -0.60595697
0.13317899 0.016677899 -0.59521502
-0.077514596 0.22363301 -0.60205102
-0.057830799 0.178589 -0.60302699
0.150391 -0.0341492 -0.279053
0.326904 0.23168901 -0.60107398
-0.0181427 0.224365 -0.60400403
0.38867199 0.184692 -0.61425799
-0.232178 0.244873 -0.59228498
0.19274899 0.153809 -0.60595697
-0.362793 -0.0290375 -0.61523402
-0.201904 0.089111298 -0.59326202
-0.029159499 0.33129901 -0.59716803
1.42383 0.50341803 -1.62305
-0.31494099 0.163818 -0.60107398
-0.16870099 0.142334 -0.59423798
-0.265625 -0.000113189 -0.618164
0.018600499 0.103943 -0.59814501
-0.41455099 0.244141 -0.58984399
0.18481401 -0.026779201 -0.33422899
-0.33520499 0.30590799 -0.59716803
0.27636701 0.26049799 -0.59619099
1.25293 0.116821 -1.38281
0.37548801 0.121582 -0.616211
0.142212 -0.049835201 -0.18261699
0.224731 0.0168152 -0.60009801
-0.062866203 0.29199201 -0.59716803
0.4729 0.070068397 -0.62207001
-0.243774 0.25366199 -0.59326202
0.32104501 0.036926299 -0.60595697
-0.16870099 0.245728 -0.59423798
-0.230957 0.299072 -0.58886701
0.75097698 0.17382801 -0.92529303
0.167114 0.190918 -0.60595697
0.026275599 -0.0134811 -0.317139
0.140991 0.116394 -0.60400403
-0.27612299 0.13745099 -0.59716803
-0.0096359299 0.23327599 -0.60497999
0.172729 0.14807101 -0.60595697
-0.237793 0.072265603 -0.59228498
1.29785 0.36914101 -1.45508
0.058868401 0.22827099 -0.60693401
-0.045929 0.095214799 -0.59619099
0.0017423599 0.17285199 -0.60302699
-0.32177699 0.23339801 -0.59814501
-0.381836 0.17504901 -0.59130901
1.28125 0.128052 -1.2998
0.33984399 0.29052699 -0.59423798
0.39111301 0.0114212 -0.61328101
1.3710901 0.83056599 -1.65137
-0.092468299 0.030365 -0.58886701
0.090820298 0.038879398 -0.59228498
1.41895 0.73681599 -1.58398
-0.0184021 -0.00303078 -0.31616199
-0.28125 0.28295901 -0.59619099
0.42504901 0.221558 -0.61230499
0.24231 -0.0260315 -0.39453101
-0.211426 -0.0291443 -0.386475
0.26318401 0.224365 -0.60400403
0.0947266 0.273193 -0.59912097
-0.136475 -0.033691399 -0.298096
-0.320068 0.115601 -0.60009801
0.101685 0.185425 -0.60693401
0.43652299 0.31152299 -0.60790998
0.210205 0.042144801 -0.59912097
-0.39770499 0.106079 -0.59423798
-0.36987299 0.223389 -0.59423798
0.173096 -0.035553001 -0.21582
0.21301299 0.211182 -0.60693401
-0.17456099 0.24340799 -0.59521502
-0.133057 0.33129901 -0.59716803
0.058868401 0.22827099 -0.60693401
1.30957 0.27221701 -1.52539
0.101379 -0.0281219 -0.31420901
0.057983398 0.298096 -0.59814501
0.77197301 0.229004 -0.91943401
0.26245099 -0.0057144202 -0.59619099
-0.31225601 0.024902301 -0.59130901
0.324707 0.29785201 -0.59228498
1.41309 0.61425799 -1.65527
0.098327599 0.102173 -0.60400403
-0.121826 0.131836 -0.59716803
0.269043 0.292236 -0.59228498
-0.18481401 0.091796897 -0.59228498
0.39379901 0.27539101 -0.60400403
0.454346 0.0256653 -0.609375
0.48168901 0.072998002 -0.62207001
0.25097701 0.157471 -0.609375
0.213379 0.119995 -0.60790998
0.40185499 0.0142822 -0.61230499
-0.38671899 0.28759801 -0.59423798
-0.40136701 0.16271999 -0.586914
0.021667499 0.179199 -0.60497999
-0.109741 -0.0346069 -0.29394501
0.192993 0.26416001 -0.59814501
0.124207 -0.0395508 -0.18261699
0.140991 0.298096 -0.60400403
0.046722401 0.087097198 -0.59814501
0.222534 -0.032836899 -0.279053
-0.31616199 0.236206 -0.59814501
0.16821299 0.0139999 -0.60009801
-0.28515601 0.066711403 -0.59228498
0.28295901 0.123291 -0.61035198
-0.135864 0.22448701 -0.59716803
1.42188 0.72705102 -1.59473
1.3125 0.265625 -1.52832
-0.021011399 0.23327599 -0.60497999
-0.280029 0.301025 -0.59326202
-0.20886201 0.044220001 -0.58886701
0.42504901 0.32372999 -0.60400403
0.36572301 0.167358 -0.61425799
0.087524399 0.168579 -0.60790998
-0.320557 0.14123499 -0.60107398
-0.127441 0.171143 -0.59716803
-0.241699 0.240601 -0.59521502
0.127197 0.122437 -0.60595697
0.425293 0.125488 -0.62109399
0.27294901 0.068420403 -0.60693401
-0.36987299 0.220581 -0.59423798
0.027847299 -0.0150223 -0.318115
0.089233398 0.262207 -0.60009801
-0.34008801 0.022125199 -0.59130901
-0.38793901 0.081176803 -0.59619099
0.35302699 0.097778298 -0.61230499
0.21850599 -0.023819 -0.388428
0.29394501 0.019744899 -0.60302699
-0.169312 0.30810499 -0.59619099
-0.034667999 0.069824196 -0.59521502
1.45605 0.55419898 -1.55176
0.209839 0.073974602 -0.60595697
0.126831 -0.033996601 -0.25781301
-0.0215149 -0.0120239 -0.318115
0.280029 0.25024399 -0.59814501
0.144043 0.236084 -0.60497999
0.205688 -0.034393299 -0.25195301
-0.27148399 0.0083389301 -0.59912097
-0.163086 0.092102103 -0.59423798
-0.141846 0.027496301 -0.586914
-0.406982 0.244507 -0.59130901
0.072021499 0.29516599 -0.59814501
0.194336 0.0140457 -0.60205102
-0.394043 0.0083694505 -0.60107398
-0.0095520001 0.25952101 -0.60009801
0.196777 0.248657 -0.60107398
-0.28222701 0.162964 -0.59814501
1.25195 0.225586 -1.33398
-0.057159401 0.313721 -0.59619099
-0.215454 -0.03125 -0.36840799
0.432129 0.066711403 -0.618164
-0.35156301 0.32226601 -0.59619099
1.3710901 0.83056599 -1.65137
0.195435 -0.0269318 -0.336182
-0.101807 0.081054702 -0.59521502
-0.146851 0.24939001 -0.59619099
-0.38891599 0.17712399 -0.58886701
0.348389 0.0396729 -0.60400403
0.26879901 0.0140915 -0.60400403
0.242798 0.269043 -0.59619099
-0.25610399 0.23535199 -0.59619099
0.152344 0.30395499 -0.60400403
0.072753899 0.12207 -0.60400403
-0.32495099 0.14917 -0.59912097
0.172729 0.119629 -0.60595697
0.38452101 0.18981899 -0.61230499
-0.133057 0.31445301 -0.59716803
0.40478501 0.0142822 -0.61230499
-0.049316399 0.24096701 -0.60302699
-0.0066757202 0.083862297 -0.59521502
-0.158325 0.182373 -0.59716803
1.28223 0.16369601 -1.45313
0.413086 0.145752 -0.62011701
-0.14123499 0.14843801 -0.59619099
-0.36132801 -0.0120239 -0.63330102
0.14428701 0.153809 -0.60595697
-0.141846 0.027496301 -0.586914
0.411621 0.31640601 -0.60107398
0.0693359 0.306885 -0.59912097
0.16113301 0.193359 -0.60497999
-0.19043 0.086181603 -0.59228498
0.2771 0.12902801 -0.61035198
1.4257801 0.55712903 -1.625
-0.196899 -0.0303955 -0.37939501
0.19458 0.243774 -0.60302699
-0.246582 0.080749497 -0.59326202
-0.256836 0.305664 -0.59130901
0.46557599 0.093810998 -0.62402302
0.061401401 0.249878 -0.60400403
-0.17211901 0.28857401 -0.59619099
0.017044101 -0.0073966999 -0.31201199
0.26879901 0.25292999 -0.59814501
1.42188 0.54931599 -1.64648
-0.068359397 0.30810499 -0.59619099
0.110229 0.162598 -0.60693401
0.30957001 0.26855499 -0.59521502
-0.174316 0.13952599 -0.59423798
0.177002 0.288086 -0.60107398
0.209839 0.076843299 -0.60595697
-0.359375 0.223755 -0.59521502
0.37011701 0.039856002 -0.60693401
0.33862299 0.077575698 -0.61230499
-0.37695301 0.150269 -0.59228498
0.40478501 0.218628 -0.61230499
0.42431599 0.0200043 -0.61132801
-0.023788501 0.246704 -0.60302699
0.13366701 0.0448303 -0.59716803
-0.28222701 0.137695 -0.59814501
0.40942401 0.27636701 -0.60595697
-0.138916 0.230591 -0.59814501
0.38012701 0.112549 -0.61425799
0.25927699 -0.029418901 -0.31201199
-0.26074201 0.083679199 -0.59423798
1.26465 0.227295 -1.30762
-0.0066757202 0.075439498 -0.59521502
0.0157318 -0.019317601 -0.31518599
-0.36206099 0.223755 -0.59521502
1.40918 0.76513702 -1.58105
0.124695 -0.037048299 -0.212769
-0.265625 0.30053699 -0.59228498
-0.059936501 0.30810499 -0.59619099
-0.20751999 0.083557099 -0.59326202
-0.10968 0.0611572 -0.59228498
0.318115 0.0198364 -0.60595697
0.093261696 0.182861 -0.60790998
0.46264601 0.093810998 -0.62402302
-0.327393 0.0111389 -0.59814501
0.0693359 0.30419901 -0.59912097
-0.28735399 0.052703898 -0.59130901
0.251221 0.111816 -0.61035198
-0.051635701 0.28637701 -0.59716803
1.2773401 0.165161 -1.30273
-0.012291 0.092407197 -0.59619099
-0.160889 0.23535199 -0.59619099
0.237183 0.0566101 -0.60302699
0.219971 0.29370099 -0.59521502
-0.366943 0.22619601 -0.59423798
-0.160889 0.29418901 -0.59619099
-0.38281301 0.0083694505 -0.60107398
0.17761201 -0.033721901 -0.25585899
0.0114594 -0.028656 -0.320068
-0.165649 0.119812 -0.59326202
0.251221 0.114685 -0.61035198
0.41235399 0.31420901 -0.60205102
-0.38452101 0.016677899 -0.59521502
0.11145 0.056152299 -0.59814501
0.155396 0.150635 -0.60497999
1.40918 0.78955102 -1.55566
1.4375 0.60107398 -1.5791
-0.37939501 0.263428 -0.59619099
-0.29126 0.168945 -0.59912097
0.27636701 0.031036399 -0.60205102
0.173218 -0.036132801 -0.239868
0.41943401 0.134277 -0.62109399
0.250732 0.27685499 -0.59521502
0.417236 0.022796599 -0.609375
-0.21582 0.0947266 -0.59326202
1.25195 0.222534 -1.35352
-0.256836 0.30004901 -0.59130901
-0.36547899 0.12597699 -0.59619099
0.16687 0.0306702 -0.59521502
0.45019501 0.0343628 -0.61132801
0.074951202 0.29296899 -0.59912097
0.143188 -0.040100101 -0.207764
0.37011701 0.036987301 -0.60693401
0.174438 0.285889 -0.60205102
-0.031951901 0.28637701 -0.59716803
-0.32177699 0.0111389 -0.59814501
1.2617199 0.160889 -1.31738
0.199341 -0.036132801 -0.25585899
-0.265625 0.29492199 -0.59228498
0.28955099 0.273682 -0.59423798
0.43359399 0.29443401 -0.60790998
0.0038623801 -0.023696899 -0.31420901
-0.152466 0.21850599 -0.59619099
-0.19323701 -0.031921402 -0.30810499
1.40039 0.78076202 -1.6132801
0.000893116 -0.0087738 -0.309082
0.426514 0.29638699 -0.60595697
-0.164673 -0.0310211 -0.32910201
1.41895 0.74462903 -1.61719
0.0126038 -0.0117569 -0.31103501
-0.187012 -0.0343628 -0.317139
1.40527 0.76855499 -1.61914
1.27637 0.182495 -1.43945
-0.14624 -0.171387 -0.36425799
0.50244099 -0.0098724402 -0.52002001
-1.08398 -1.9248 -3.7539101
-1.0820301 -1.97461 -3.74805
0.53613299 -0.000120938 -0.66015601
1.48535 0.96240199 -1.7207
1.0166 0.0415955 -1.11133
0.095886201 -0.104675 -0.25292999
0.113953 -0.0287476 -0.40649399
0.17163099 -0.0098190298 -0.51660198
1.34961 0.43261701 -1.43848
0.452393 -0.0139618 -0.49169901
-0.085022002 -0.044403099 -0.17163099
0.2146 -0.0061111501 -0.63720697
0.089294396 -0.0121765 -0.64111298
-0.084106401 -0.028457601 -0.37744099
0.16784699 -0.0849609 -0.180664
0.163086 0.342529 -0.60205102
0.116821 -0.0152435 -0.64306599
0.355225 -0.0187988 -0.39843801
-0.0451965 -0.038421601 -0.226807
0.12988301 -0.0203094 -0.391357
0.19702099 -0.0123215 -0.52002001
0.46484399 0.20666499 -0.61914098
0.339111 0.26416001 -0.64648402
0.111633 0.31396499 -0.64843798
0.71972698 0.14038099 -0.99658197
-0.037353501 0.28027299 -0.64111298
-0.26733401 0.144897 -0.62939501
-0.233521 -0.032653801 -0.33007801
0.171509 -0.046112102 -0.288086
0.45019501 0.343018 -0.65722698
0.23925801 -0.0298004 -0.57421899
-0.33544901 0.345947 -0.62939501
1.20508 0.0206757 -1.48535
1.15918 -0.0059166001 -1.21094
0.16699199 0.27807599 -0.65039098
0.0531311 -0.044311501 -0.336182
0.30810499 0.13415501 -0.66455102
-0.201416 0.114746 -0.62597698
-0.049011201 0.104614 -0.63622999
-0.20166001 0.29492199 -0.62744099
0.18481401 0.070007302 -0.64843798
-0.079223603 -0.0318604 -0.45068401
0.106262 -0.022262599 -0.67236298
0.28613299 0.0243378 -0.65039098
0.40991199 -0.028579701 -0.67236298
1.29395 0.32202101 -1.52344
0.23803701 0.21765099 -0.65234399
0.43701199 0.220581 -0.67040998
-0.0281677 0.34814501 -0.63818401
-0.39550799 0.105042 -0.62109399
0.028991699 0.105408 -0.64111298
0.0257263 0.044677701 -0.63525403
-0.314697 0.0526428 -0.62304699
-0.444336 0.120789 -0.61230499
-0.35107401 0.076293901 -0.625
-0.084228501 0.068176299 -0.63134801
-0.128784 0.10675 -0.63134801
0.229614 0.0829468 -0.65429699
0.197632 0.155884 -0.65039098
0.37402299 0.34179699 -0.64306599
1.42969 0.77539098 -1.57031
0.26269501 0.27294901 -0.64550799
-0.117676 0.25976601 -0.63525403
0.421875 0.0280762 -0.66650403
-0.071472198 0.0174713 -0.62304699
-0.145142 0.058685299 -0.625
0.469482 0.072998002 -0.67627001
0.059905998 0.21057101 -0.649414
-0.108032 0.347168 -0.63134801
1.44043 0.47070301 -1.6416
-0.21765099 0.052551299 -0.62207001
0.37646499 0.125732 -0.66943401
-0.215454 -0.0125427 -0.66015601
-0.340332 0.20043901 -0.62744099
0.139282 0.125 -0.649414
1.45605 0.87890601 -1.81543
1.63574 1.10742 -1.94824
0.37817401 -0.033264201 -0.50390601
-0.14379901 0.193115 -0.63232398
-0.148682 -0.000117242 -0.64013702
-0.40527299 0.270264 -0.618164
-0.135132 -0.12915 -0.29199201
-0.016311601 0.193726 -0.64404303
0.489014 0.166504 -0.68164098
1.46777 0.50439501 -1.5332
-0.210205 0.25317401 -0.62597698
0.351318 -0.015716599 -0.66357398
0.114319 0.25512701 -0.64648402
0.42041001 0.27270499 -0.65917999
-0.43652299 0.182007 -0.60497999
-0.30883801 -0.0155029 -0.65429699
0.177246 -0.038909901 -0.48583999
0.0502625 0.30835 -0.64306599
-0.26831099 0.32861301 -0.62402302
-0.40771499 0.049621601 -0.62207001
0.25707999 -0.044525102 -0.32617199
1.2373 0.22644 -1.33887
-0.076782197 0.22070301 -0.64306599
0.184448 0.35913101 -0.647461
0.010994 0.0175476 -0.416504
0.27270499 0.184448 -0.65429699
0.36377001 0.0497742 -0.66357398
-0.061370801 0.156372 -0.64013702
-0.22863799 0.20373499 -0.62841803
1.3945301 0.44360399 -1.74805
-0.269775 0.0466309 -0.62109399
0.056579601 0.157959 -0.64648402
1.4726599 0.41235399 -1.4873
-0.17163099 0.36499 -0.63622999
0.29126 0.34667999 -0.64111298
1.44434 0.62597698 -1.53125
-0.086303703 -0.031646699 -0.67040998
0.080627397 0.093810998 -0.64404303
0.133057 -0.0493774 -0.205688
0.239136 0.120056 -0.65527302
-0.389404 -0.027008099 -0.63525403
0.233154 0.039459199 -0.647461
0.20166001 -0.130615 -0.266846
-0.44653299 0.32104501 -0.61523402
0.319336 0.203247 -0.65527302
0.484375 -0.0362854 -0.64111298
-0.66845697 -0.80175799 -1.9375
0.263428 -0.0221863 -0.67040998
1.2304699 0.137573 -1.62988
-0.376221 0.145264 -0.618164
0.070922904 -0.0359497 -0.44872999
0.0030937199 -0.061401401 -0.407471
-0.092407197 -0.045654301 -0.17968801
-0.284668 0.265625 -0.62841803
-0.256836 -0.028518699 -0.50390601
-0.34960899 0.29516599 -0.62841803
1.4101599 0.61425799 -1.69824
-0.12085 -0.182495 -0.553711
0.164185 0.211182 -0.65136701
0.40307599 0.181641 -0.66650403
-0.32080099 0.121216 -0.62939501
1.23535 0.099670403 -1.63574
1.46582 0.63330102 -1.4804699
0.085022002 -0.043731701 -0.357178
1.2666 0.24768101 -1.2851599
-0.091552697 -0.0322266 -0.40234399
-0.192505 0.14123499 -0.62597698
0.33300799 0.25512701 -0.64648402
0.63476598 -0.0300903 -0.79589802
1.46973 0.80029303 -1.52051
-0.42822301 0.33642599 -0.62207001
0.089111298 -0.0125809 -0.66210902
-0.36108401 0.201782 -0.62207001
1.2002 0.0119095 -1.29199
0.101868 0.078674302 -0.64404303
1.4082 0.60107398 -1.70508
0.218384 -0.036987301 -0.46167001
-0.105713 0.137329 -0.63525403
0.74658197 0.21106 -0.97656298
-0.26831099 0.32861301 -0.62402302
0.37915 0.094177201 -0.66845697
0.307129 0.083984397 -0.66210902
1.66211 1.04492 -1.88379
-0.19616701 0.037750199 -0.61914098
0.0380859 0.32299799 -0.64209002
-0.34667999 0.27758801 -0.62841803
-0.354004 0.076293901 -0.625
0.155029 -0.050933801 -0.186646
0.16320799 0.069885299 -0.647461
-0.267822 0.0614319 -0.62304699
1.3710901 0.34106401 -1.72949
0.229248 0.214966 -0.65332001
-0.217896 -0.035003699 -0.32324201
-0.17163099 0.099853501 -0.625
-0.138062 0.181519 -0.63330102
0.032134999 -0.045623802 -0.23083501
-0.0102234 0.156982 -0.64209002
-0.0828247 0.22070301 -0.64306599
0.20886201 0.267822 -0.647461
0.227661 0.36425799 -0.64013702
-0.043457001 0.265625 -0.64209002
0.42431599 0.27612299 -0.66015601
0.48144501 0.247559 -0.67529303
-0.28710899 0.25634801 -0.62744099
-0.34375 0.35742199 -0.62841803
0.038513198 0.22277801 -0.649414
-0.41796899 0.0615234 -0.62402302
0.135986 0.143188 -0.64843798
0.35888699 0.335693 -0.64306599
0.087341301 0.161743 -0.649414
-0.25854501 0.121216 -0.62939501
0.354736 -0.040100101 -0.47265601
-0.126343 0.25634801 -0.63427699
0.035125699 0.111816 -0.64306599
0.241943 -0.022216801 -0.67138702
0.0167694 0.050659198 -0.63525403
0.102173 0.258057 -0.64648402
0.240723 -0.0435181 -0.34228501
0.0031471299 0.0155182 -0.41455099
-0.158691 0.30004901 -0.63232398
0.465332 0.35449201 -0.66113299
-0.12560999 0.0947266 -0.63037097
0.44384801 0.088256799 -0.67138702
-0.394775 0.250732 -0.62011701
-0.028213499 0.360596 -0.63915998
0.238892 -0.0497742 -0.24585
0.155029 0.229614 -0.65136701
-0.22827099 0.21228001 -0.62744099
-0.168457 0.36132801 -0.63525403
0.33984399 0.0121689 -0.65332001
-0.076416001 0.17456099 -0.64013702
1.08105 -0.0069961501 -1.43164
0.18640099 0.0059318501 -0.64306599
-0.235229 -0.000116885 -0.63818401
1.09375 -0.016555799 -1.15918
0.485107 0.179077 -0.68017602
-0.0311279 0.104797 -0.63720697
-0.204346 0.29443401 -0.62597698
-0.043365501 0.27734399 -0.64111298
1.47949 0.44238299 -1.49414
-0.120483 -0.042938199 -0.202759
0.36425799 -0.045013402 -0.38232401
-0.244629 -0.0326843 -0.36523399
0.40991199 0.200684 -0.66747999
-0.260986 0.14758299 -0.62841803
-0.106018 0.257568 -0.63720697
1.27832 0.78320301 -1.73633
0.22619601 0.202637 -0.65332001
0.151978 -0.042327899 -0.32104501
0.48461899 -0.038299602 -0.58007801
0.69531298 0.31005901 -0.95654303
-0.0130005 0.047302201 -0.63037097
-0.35327101 0.205322 -0.62402302
0.245728 0.092468299 -0.65625
-0.40234399 0.35668901 -0.62744099
-0.45019501 0.072814897 -0.62011701
0.123718 -0.035369899 -0.68164098
-0.388428 -0.027130101 -0.63818401
0.46386701 0.18139599 -0.67724597
1.25098 0.171753 -1.30664
-0.0927734 -0.0348511 -0.67138702
0.323486 0.25781301 -0.64550799
1.38965 0.45288101 -1.75195
0.12988301 0.35034201 -0.64843798
-0.094848603 -0.032074001 -0.40039101
0.280518 0.211182 -0.65136701
-0.150879 0.058593798 -0.62402302
-0.178955 0.228149 -0.63037097
1.43457 0.72607398 -1.59277
-0.370361 0.15100101 -0.618164
0.182007 0.088439897 -0.649414
0.26367199 0.169312 -0.65527302
0.33764601 0.131714 -0.66747999
-0.21472199 0.055481002 -0.62207001
0.36035201 -0.037109401 -0.60497999
-0.27832001 0.25927699 -0.62744099
0.438232 0.37475601 -0.65332001
0.344971 0.18847699 -0.65722698
0.053314202 -0.041290302 -0.33715799
0.21386699 0.125854 -0.65332001
0.36181599 0.34179699 -0.64306599
0.28222701 0.358643 -0.64111298
0.25439501 0.255615 -0.647461
1.44434 0.60742199 -1.53809
0.087341301 0.198364 -0.649414
0.18225101 0.17419399 -0.65039098
-0.34082001 0.36035201 -0.62841803
-0.0193481 0.190796 -0.64404303
-0.40356401 0.19238301 -0.61132801
-0.43945301 0.151733 -0.609375
0.127808 -0.0329285 -0.53662097
-0.27075201 0.35449201 -0.62304699
1.44238 0.83300799 -1.51465
0.095764197 0.093810998 -0.64404303
-0.31616199 0.043640099 -0.62011701
-0.15271001 0.157471 -0.63232398
0.29028299 0.0618896 -0.65917999
1.2041 0.18310501 -1.625
1.60156 1.11816 -1.9502
0.108215 0.246094 -0.64648402
0.214233 0.31542999 -0.64550799
-0.204712 0.147339 -0.62744099
-0.17456099 0.099853501 -0.625
-0.21472199 0.052551299 -0.62207001
0.22143599 0.0516968 -0.64843798
0.37475601 0.24646001 -0.65527302
0.28442401 -0.0125427 -0.66015601
0.0751343 0.216675 -0.649414
-0.207642 0.24768101 -0.62744099
1.40039 0.62744099 -1.75684
1.2041 -0.046844501 -1.23926
0.90966803 -0.028015099 -1.18262
0.098083504 -0.039611802 -0.42041001
0.569336 -0.0216827 -0.76367199
0.049835201 -0.042602502 -0.33520499
-0.44360399 0.27856401 -0.61132801
0.44604501 0.110901 -0.67431599
0.36377001 -0.028198199 -0.66357398
0.093444802 0.14636201 -0.649414
-0.071167 -0.037170399 -0.39453101
0.185303 0.177246 -0.65039098
-0.086120598 -0.041809101 -0.22778299
-0.0967407 0.128296 -0.63525403
-0.31957999 0.17981 -0.62744099
0.355957 0.0371399 -0.66015601
-0.375 0.122559 -0.62109399
0.130127 0.332764 -0.649414
0.161377 0.233032 -0.65234399
0.68994099 0.275635 -0.96142602
1.2460901 0.2771 -1.34082
1.45117 0.82617199 -1.51563
-0.226807 -0.00939178 -0.65722698
0.099487297 -0.022155801 -0.66943401
1.22754 0.046783399 -1.42871
0.080993697 -0.048492402 -0.17456099
-0.37988299 0.0058021499 -0.62939501
1.46875 0.47119099 -1.5195301
-0.12560999 0.36132801 -0.63037097
0.0321045 0.123901 -0.64306599
1.3945301 0.380615 -1.5
-0.0404968 0.25097701 -0.64306599
-0.0102539 0.196777 -0.64404303
0.0089034997 0.0057144202 -0.4104
-0.30883801 -0.027557399 -0.41747999
-0.33447301 0.091308601 -0.62744099
0.43945301 0.34814501 -0.65527302
-0.290039 0.32714799 -0.62744099
-0.150391 0.037933301 -0.62207001
0.28393599 0.29418901 -0.64550799
-0.0890503 0.0174713 -0.62304699
0.43383801 0.040863 -0.67040998
-0.261475 0.112305 -0.62939501
0.092590302 0.069458 -0.64306599
0.38891599 -0.045349099 -0.418457
-0.105896 0.27514601 -0.63622999
-0.085449196 0.198608 -0.64013702
0.203979 -0.0062446599 -0.65136701
0.28979501 0.0525208 -0.65820301
-0.107666 0.079772897 -0.62939501
0.0170135 0.272461 -0.64404303
0.36230499 0.36645499 -0.64404303
0.111267 0.246094 -0.64648402
1.27148 0.067993201 -1.61426
-0.14038099 -0.043060299 -0.212769
-0.389893 0.32666001 -0.62597698
-0.206421 -0.018783599 -0.66113299
0.258789 0.102051 -0.65820301
0.491943 -0.036407501 -0.64306599
1.25293 0.30542001 -1.41309
0.142334 0.332764 -0.649414
0.31665 0.18810999 -0.65625
-0.29956099 0.27172899 -0.62841803
-0.36328101 0.143066 -0.62109399
-0.098388702 -0.0319824 -0.399414
0.31274399 0.24682599 -0.64843798
0.105713 0.14331099 -0.649414
-0.069824196 0.35839799 -0.63525403
0.302246 -0.015762299 -0.66552699
0.201782 -0.040191699 -0.47363299
-0.126343 0.17590301 -0.63427699
0.290039 0.300293 -0.64550799
1.5498 0.93994099 -1.7851599
-0.30883801 0.150757 -0.62939501
0.083190903 -0.032836899 -0.43554699
-0.218872 -0.036132801 -0.36523399
-0.334961 0.20959499 -0.62841803
-0.42211899 0.211914 -0.609375
0.457764 0.26074201 -0.66845697
0.35961899 0.040313698 -0.66113299
0.073059097 0.0117569 -0.63134801
-0.443115 0.29443401 -0.61425799
1.3398401 0.663086 -1.74219
-0.076293901 0.15014599 -0.63915998
0.32519501 -0.033844002 -0.59814501
0.236206 -0.049011201 -0.247925
0.048095699 -0.044067401 -0.33422899
0.371582 0.243286 -0.65527302
-0.199707 0.0466309 -0.62109399
0.153809 0.060668901 -0.64648402
0.068237297 -0.073547401 -0.175659
0.21557599 0.057891801 -0.649414
-0.258057 0.18896499 -0.62841803
1.40137 0.43261701 -1.7373
-0.38354501 -0.00623322 -0.65039098
0.074584998 0.275635 -0.64404303
0.46215799 0.16284201 -0.67919898
0.69042999 0.35693401 -0.94970697
-0.167114 0.28442401 -0.63037097
-0.0458069 0.080261201 -0.63330102
-0.28491199 0.052551299 -0.62207001
0.065978996 0.216675 -0.649414
1.45313 0.57617199 -1.49512
-0.27929699 -0.024841299 -0.65722698
0.072265603 -0.0384521 -0.67919898
0.32372999 0.106079 -0.66455102
-0.189575 0.14416499 -0.62597698
0.0079193097 0.16955601 -0.64404303
-0.354004 0.061615001 -0.625
0.40234399 0.19067401 -0.66552699
0.202759 0.25244099 -0.647461
1.23242 -0.041198701 -1.24414
-0.12085 -0.028457601 -0.66943401
0.252197 0.36767599 -0.64111298
-0.182495 0.33593801 -0.63232398
0.92334002 -0.0172577 -1.2070301
0.640625 -0.032958999 -0.77587903
1.36914 0.37988299 -1.58594
-0.35571301 0.27758801 -0.62841803
1.44727 0.83300799 -1.48926
-0.104553 0.070800804 -0.62841803
1.53418 0.91699201 -1.71094
-0.39770499 0.014473 -0.62011701
-0.34130901 0.349121 -0.62939501
-0.161377 0.28173801 -0.63134801
-0.0132675 0.175293 -0.64306599
0.074890099 0.33764601 -0.647461
0.086120598 -0.084655799 -0.197754
0.42431599 -0.028701801 -0.67529303
-0.097228996 0.260986 -0.63818401
-0.42797899 0.120972 -0.61328101
-0.229736 0.30468801 -0.62304699
0.15734901 -0.044250499 -0.36132801
0.092102103 -0.034423798 -0.429443
0.054901101 -0.0444641 -0.33715799
-0.117188 -0.047149699 -0.20874
0.166748 0.149536 -0.649414
0.0050201402 -0.021194501 -0.408447
-0.20202599 0.21264599 -0.62841803
0.21472199 -0.015762299 -0.66552699
1.50781 1.09668 -1.91309
-0.260986 0.097351097 -0.62841803
0.36645499 0.25415 -0.65136701
1.28906 0.150757 -1.60645
-0.32324201 0.20373499 -0.62841803
0.45068401 0.32495099 -0.65820301
0.347168 0.31494099 -0.64404303
1.26563 0.241455 -1.28418
0.087341301 0.149536 -0.649414
0.034759499 0.0597229 -0.63622999
-0.078674302 -0.032409701 -0.40454099
-0.254639 0.25634801 -0.62744099
-0.201782 -0.00320625 -0.65625
0.267822 0.22619601 -0.65039098
0.229248 0.147339 -0.65332001
-0.38281301 0.093810998 -0.62402302
0.43261701 0.062744103 -0.66845697
-0.234253 -0.036132801 -0.36523399
-0.0822144 0.143921 -0.63818401
-0.44165 0.31274399 -0.616211
-0.37451199 0.13403299 -0.62011701
0.0109329 0.27197301 -0.64306599
0.20813 -0.028503399 -0.54882801
-0.087646499 0.33984399 -0.63427699
0.33715799 0.17688 -0.66015601
-0.0101471 0.338379 -0.63720697
0.43554699 0.26196301 -0.66357398
0.72167999 0.28906301 -0.96142602
0.231567 0.061126702 -0.65136701
-0.109192 0.203979 -0.63818401
-0.190796 0.204346 -0.63037097
0.117981 -0.050170898 -0.226807
-0.336182 0.079284698 -0.625
1.41602 0.42773399 -1.68652
0.27758801 0.33300799 -0.64404303
0.444336 -0.040069599 -0.60693401
0.0208435 0.0117035 -0.41747999
0.16394 0.269043 -0.65039098
0.428711 0.0947266 -0.67236298
-0.139038 -0.0189209 -0.66650403
-0.174927 0.108826 -0.62597698
-0.260986 0.17419399 -0.62841803
0.108093 0.087890603 -0.64550799
-0.44580099 0.026046799 -0.618164
0.23535199 0.19653299 -0.65332001
0.207275 0.359375 -0.64209002
-0.21057101 0.13855 -0.62744099
-0.408447 0.171997 -0.61035198
0.062744103 -0.0321045 -0.68017602
0.34423801 0.31201199 -0.64404303
0.390625 -0.015670801 -0.66113299
-0.0733032 0.15918 -0.63915998
0.43579099 0.34130901 -0.65429699
-0.137207 -0.043182399 -0.223755
-0.0219879 0.068359397 -0.63330102
0.085022002 -0.032775901 -0.43457001
1.2627 0.068298303 -1.62207
-0.069152802 -0.038909901 -0.39331099
0.25830099 0.241089 -0.649414
0.351318 0.0622559 -0.66357398
-0.30737299 0.043640099 -0.62011701
-0.15564001 0.031951901 -0.62011701
0.166504 0.14624 -0.64843798
-0.087646499 0.345947 -0.63427699
0.224976 -0.047393799 -0.264893
1.4492199 0.65087903 -1.52148
-0.21508799 0.067260697 -0.62304699
1.2539099 0.176514 -1.29688
1.38281 0.64697301 -1.76563
0.96142602 -0.0280609 -1.18457
0.45874 0.159668 -0.67919898
-0.385254 -0.0093383798 -0.65332001
-0.26855499 -0.000117064 -0.63915998
-0.429443 0.225464 -0.60693401
0.111816 0.34179699 -0.649414
1.24121 0.27002001 -1.4375
0.062927201 0.231934 -0.649414
1.4248 0.76025403 -1.52539
-0.22399899 -0.028457601 -0.40234399
0.192993 -0.0093612699 -0.65527302
-0.037475601 0.18139599 -0.64306599
-0.35034201 0.343018 -0.62939501
-0.26708999 0.17419399 -0.62841803
0.63818401 -0.0295563 -0.78173798
1.24902 0.19824199 -1.62402
1.40527 0.4104 -1.71191
0.053375199 0.108948 -0.64404303
0.23291001 0.27636701 -0.64648402
-0.284668 0.123962 -0.62841803
1.2002 0.0127563 -1.38281
0.27294901 -0.047180202 -0.32324201
0.38745099 0.159668 -0.66650403
-0.228882 -0.031311002 -0.66357398
-0.121155 -0.045349099 -0.200684
0.201294 0.20544399 -0.65234399
0.42431599 0.27612299 -0.66015601
-0.207275 0.32958999 -0.62597698
0.179199 0.26293901 -0.65039098
-0.43139601 0.0928955 -0.618164
-0.00116253 0.12646499 -0.64111298
0.0139999 0.184937 -0.64550799
0.210693 -0.050781298 -0.25097701
0.255371 0.129639 -0.65722698
0.101318 -0.045135502 -0.24585
0.34350601 0.097045898 -0.66650403
-0.19616701 0.22741701 -0.62841803
1.4502 0.41894501 -1.53711
0.26708999 -0.015716599 -0.66357398
-0.039856002 0.080261201 -0.63330102
0.40869099 0.053070098 -0.66552699
-0.375 0.29736301 -0.62597698
-0.122253 0.082580604 -0.62841803
0.72851598 0.130859 -0.99560499
-0.0026607499 -0.0058364901 -0.408447
0.465332 0.34814501 -0.66113299
0.19458 0.091613799 -0.65039098
0.13574199 0.079040498 -0.647461
0.1604 0.124878 -0.64843798
-0.43139601 0.15478501 -0.61035198
0.44360399 -0.037414599 -0.61035198
1.39551 0.99755901 -1.81348
0.292236 0.335693 -0.64306599
-0.135498 -0.0157318 -0.66455102
-0.097228996 0.260986 -0.63818401
0.32031301 0.185303 -0.65722698
0.099609397 0.164795 -0.649414
-0.43139601 0.24096701 -0.61035198
0.126831 0.26806599 -0.64843798
-0.120239 0.139771 -0.63330102
1.43555 0.56884801 -1.55273
-0.339111 0.073364303 -0.625
0.059661899 -0.0225525 -0.68164098
0.067382798 -0.072692901 -0.175659
-0.35327101 0.202393 -0.62402302
-0.161377 0.28784201 -0.63134801
-0.100525 0.207642 -0.64013702
