ply
format ascii 1.0
comment PCL generated
element vertex 1120
property float x
property float y
property float z
property uchar red
property uchar green
property uchar blue
element camera 0
property float view_px
property float view_py
property float view_pz
property float x_axisx
property float x_axisy
property float x_axisz
property float y_axisx
property float y_axisy
property float y_axisz
property float z_axisx
property float z_axisy
property float z_axisz
property float focal
property float scalex
property float scaley
property float centerx
property float centery
property int viewportx
property int viewporty
property float k1
property float k2
end_header
0.0098266602 0.0121841 -0.37231401 73 16 9
0.0116119 0.0122223 -0.37329099 70 13 6
0.0134048 0.0122528 -0.374268 71 14 7
0.0152054 0.0122833 -0.37524399 71 17 9
0.0170135 0.0123215 -0.37646499 74 21 15
-0.041259799 0.0105209 -0.37524399 67 19 13
-0.0393066 0.0104675 -0.37329099 69 17 8
-0.037445098 0.010437 -0.37231401 76 17 10
-0.0355835 0.0104065 -0.37133801 76 17 10
-0.0337524 0.010376 -0.370361 80 19 11
-0.0318298 0.0103226 -0.36840799 81 20 12
-0.030029301 0.0102921 -0.367432 81 20 12
-0.028228801 0.0102692 -0.366211 81 20 12
-0.0265045 0.0102692 -0.366211 83 22 14
-0.024704 0.0102386 -0.36523399 83 19 12
-0.022933999 0.0102081 -0.36425799 84 18 12
-0.0212097 0.0102081 -0.36425799 84 18 12
-0.019500701 0.0102081 -0.36425799 85 19 13
-0.017746 0.0101852 -0.36328101 87 21 15
-0.016037 0.0101852 -0.36328101 89 25 18
-0.014328 0.0101852 -0.36328101 90 29 21
-0.012619 0.0101852 -0.36328101 90 29 21
-0.01091 0.0101852 -0.36328101 95 36 27
-0.0092239399 0.0102081 -0.36425799 96 37 28
-0.0075149499 0.0102081 -0.36425799 91 32 23
-0.0057983398 0.0102081 -0.36425799 91 32 23
-0.0040969802 0.0102386 -0.36523399 91 34 25
-0.0023803699 0.0102386 -0.36523399 92 35 26
-0.00066423399 0.0102692 -0.366211 90 38 27
0.00106144 0.0102921 -0.367432 96 47 37
0.00278854 0.0102921 -0.367432 90 42 36
0.0045280498 0.0103226 -0.36840799 83 33 28
0.0062751798 0.0103531 -0.369385 76 23 19
0.0080337496 0.010376 -0.370361 73 18 13
0.0098266602 0.010437 -0.37231401 72 18 10
0.0116119 0.0104675 -0.37329099 68 11 4
0.0134048 0.0104904 -0.374268 70 13 6
0.0152054 0.0105209 -0.37524399 72 15 8
0.0170135 0.0105515 -0.37646499 72 20 11
-0.0430298 0.0087585403 -0.37524399 69 21 15
-0.041168202 0.0087280301 -0.374268 67 17 10
-0.0393066 0.0087051401 -0.37329099 70 18 9
-0.037445098 0.00868225 -0.37231401 73 16 9
-0.0355835 0.00865936 -0.37133801 79 20 11
-0.0336609 0.0086135902 -0.369385 81 22 13
-0.0318298 0.0085907001 -0.36840799 83 22 14
-0.030029301 0.0085678101 -0.367432 84 23 15
-0.028228801 0.00854492 -0.366211 87 26 18
-0.0264282 0.00852203 -0.36523399 88 27 19
-0.024704 0.00852203 -0.36523399 87 23 16
-0.022933999 0.0084991502 -0.36425799 87 21 15
-0.0212097 0.0084991502 -0.36425799 86 20 14
-0.019455001 0.0084762601 -0.36328101 86 20 14
-0.017746 0.0084762601 -0.36328101 90 24 18
-0.016037 0.0084762601 -0.36328101 91 27 20
-0.014328 0.0084762601 -0.36328101 94 33 25
-0.012619 0.0084762601 -0.36328101 95 34 26
-0.01091 0.0084762601 -0.36328101 95 36 29
-0.0092010498 0.0084762601 -0.36328101 95 36 29
-0.0075149499 0.0084991502 -0.36425799 90 31 22
-0.0057983398 0.0084991502 -0.36425799 89 30 21
-0.0040855398 0.0084991502 -0.36425799 91 32 23
-0.0023803699 0.00852203 -0.36523399 91 34 25
-0.00066423399 0.00854492 -0.366211 90 36 26
0.00105858 0.00854492 -0.366211 90 41 31
0.00278854 0.0085678101 -0.367432 93 47 41
0.0045280498 0.0085907001 -0.36840799 86 40 34
0.0062751798 0.0086135902 -0.369385 77 27 24
0.0080337496 0.00863647 -0.370361 73 18 13
0.0098037701 0.00865936 -0.37133801 73 15 11
0.0116119 0.0087051401 -0.37329099 72 15 8
0.0134048 0.0087280301 -0.374268 70 13 6
0.0152054 0.0087585403 -0.37524399 70 16 8
0.0170135 0.0087814303 -0.37646499 72 17 12
-0.0430298 0.0069923401 -0.37524399 69 23 15
-0.041168202 0.0069732699 -0.374268 70 16 8
-0.0393066 0.0069541899 -0.37329099 73 16 9
-0.037445098 0.0069351201 -0.37231401 76 17 8
-0.0355835 0.0069160499 -0.37133801 81 20 12
-0.0336609 0.0068779001 -0.369385 85 24 16
-0.0318298 0.0068588299 -0.36840799 89 28 20
-0.030029301 0.0068435702 -0.367432 89 28 20
-0.028228801 0.0068244901 -0.366211 98 37 29
-0.0264282 0.0068054199 -0.36523399 91 32 23
-0.0246429 0.0067863502 -0.36425799 89 28 20
-0.022933999 0.0067863502 -0.36425799 88 22 16
-0.021163899 0.0067672702 -0.36328101 87 21 15
-0.019455001 0.0067672702 -0.36328101 88 22 16
-0.017746 0.0067672702 -0.36328101 90 26 19
-0.016037 0.0067672702 -0.36328101 93 29 22
-0.014328 0.0067672702 -0.36328101 96 32 25
-0.012619 0.0067672702 -0.36328101 94 30 23
-0.01091 0.0067672702 -0.36328101 91 30 22
-0.0092010498 0.0067672702 -0.36328101 90 29 23
-0.0075149499 0.0067863502 -0.36425799 89 28 20
-0.0057983398 0.0067863502 -0.36425799 90 29 21
-0.0040855398 0.0067863502 -0.36425799 90 29 21
-0.0023803699 0.0068054199 -0.36523399 90 29 21
-0.00066423399 0.0068244901 -0.366211 89 32 23
0.00105858 0.0068244901 -0.366211 89 35 27
0.00278854 0.0068435702 -0.367432 85 32 26
0.0045280498 0.0068588299 -0.36840799 87 39 31
0.0062751798 0.0068779001 -0.369385 80 30 25
0.0080337496 0.0068969699 -0.370361 77 19 15
0.0098037701 0.0069160499 -0.37133801 76 16 12
0.0115814 0.0069351201 -0.37231401 73 13 9
0.0134048 0.0069732699 -0.374268 73 14 7
0.0152054 0.0069923401 -0.37524399 66 12 4
0.0170135 0.0070114098 -0.37646499 71 17 9
-0.041168202 0.0052108802 -0.374268 72 17 12
-0.0393066 0.00519943 -0.37329099 73 16 9
-0.037445098 0.0051841699 -0.37231401 78 17 11
-0.0355835 0.0051689101 -0.37133801 82 21 13
-0.0336609 0.0051422101 -0.369385 87 26 18
-0.0318298 0.0051269499 -0.36840799 97 39 27
-0.030029301 0.00511551 -0.367432 94 36 24
-0.028228801 0.0051002498 -0.366211 103 44 35
-0.0264282 0.0050849901 -0.36523399 95 38 29
-0.0246429 0.0050735502 -0.36425799 91 30 22
-0.022933999 0.0050735502 -0.36425799 92 26 20
-0.021163899 0.00505829 -0.36328101 88 23 14
-0.019455001 0.00505829 -0.36328101 90 25 16
-0.017746 0.00505829 -0.36328101 91 28 18
-0.016037 0.00505829 -0.36328101 93 30 20
-0.014328 0.00505829 -0.36328101 93 30 20
-0.012619 0.00505829 -0.36328101 91 28 18
-0.01091 0.00505829 -0.36328101 89 25 18
-0.0092010498 0.00505829 -0.36328101 87 21 15
-0.0075149499 0.0050735502 -0.36425799 91 25 19
-0.0057983398 0.0050735502 -0.36425799 91 25 19
-0.0040969802 0.0050849901 -0.36523399 90 26 19
-0.0023803699 0.0050849901 -0.36523399 90 26 19
-0.00066423399 0.0051002498 -0.366211 89 28 20
0.00105858 0.0051002498 -0.366211 87 28 19
0.00278854 0.00511551 -0.367432 84 27 18
0.0045280498 0.0051269499 -0.36840799 81 24 17
0.0062751798 0.0051422101 -0.369385 80 23 16
0.0080337496 0.0051574698 -0.370361 77 20 13
0.0098037701 0.0051689101 -0.37133801 75 16 9
0.0115814 0.0051841699 -0.37231401 74 13 7
0.0133667 0.00519943 -0.37329099 73 14 7
0.0152054 0.0052261399 -0.37524399 71 14 7
0.0170135 0.0052413899 -0.37646499 68 14 6
-0.041259799 0.0034618401 -0.37524399 72 19 13
-0.0393066 0.0034427601 -0.37329099 73 16 9
-0.037445098 0.0034332301 -0.37231401 77 18 11
-0.0355835 0.0034236901 -0.37133801 81 22 15
-0.0336609 0.00340652 -0.369385 84 23 15
-0.0318298 0.00339699 -0.36840799 95 34 26
-0.030029301 0.00338745 -0.367432 94 34 23
-0.028228801 0.00337791 -0.366211 97 37 26
-0.0264282 0.00336838 -0.36523399 96 36 25
-0.0246429 0.00335884 -0.36425799 93 30 20
-0.022933999 0.00335884 -0.36425799 91 26 17
-0.021163899 0.0033493 -0.36328101 90 25 16
-0.019455001 0.0033493 -0.36328101 92 27 18
-0.017746 0.0033493 -0.36328101 94 29 20
-0.016037 0.0033493 -0.36328101 92 29 19
-0.014328 0.0033493 -0.36328101 91 28 18
-0.012619 0.0033493 -0.36328101 90 27 17
-0.01091 0.0033493 -0.36328101 86 20 14
-0.0092239399 0.00335884 -0.36425799 84 18 12
-0.0075149499 0.00335884 -0.36425799 86 20 14
-0.0057983398 0.00335884 -0.36425799 88 22 16
-0.0040969802 0.00336838 -0.36523399 90 25 16
-0.0023803699 0.00336838 -0.36523399 91 26 17
-0.00066423399 0.00337791 -0.366211 91 28 18
0.00105858 0.00337791 -0.366211 83 23 12
0.00278854 0.00338745 -0.367432 83 24 15
0.0045280498 0.00339699 -0.36840799 79 20 11
0.0062751798 0.00340652 -0.369385 79 20 11
0.0080337496 0.0034141501 -0.370361 74 15 8
0.0098037701 0.0034236901 -0.37133801 73 14 7
0.0115814 0.0034332301 -0.37231401 73 14 7
0.0133667 0.0034427601 -0.37329099 73 12 6
0.0152054 0.0034618401 -0.37524399 71 14 7
0.0170135 0.0034713701 -0.37646499 70 13 6
-0.041259799 0.00169659 -0.37524399 74 21 15
-0.0393066 0.00168705 -0.37329099 72 18 10
-0.037445098 0.00168228 -0.37231401 80 21 14
-0.0355835 0.0016784701 -0.37133801 80 19 13
-0.0336609 0.0016689301 -0.369385 87 23 18
-0.0318298 0.0016641601 -0.36840799 91 27 20
-0.030029301 0.00166035 -0.367432 92 31 23
-0.028228801 0.00165558 -0.366211 94 34 23
-0.0264282 0.00165081 -0.36523399 96 33 23
-0.0246429 0.00164604 -0.36425799 98 35 25
-0.022933999 0.00164604 -0.36425799 92 27 18
-0.0212097 0.00164604 -0.36425799 93 28 19
-0.019455001 0.00164223 -0.36328101 94 29 20
-0.017746 0.00164223 -0.36328101 93 30 20
-0.016037 0.00164223 -0.36328101 90 27 17
-0.014328 0.00164223 -0.36328101 89 26 16
-0.0126495 0.00164604 -0.36425799 87 22 13
-0.0109406 0.00164604 -0.36425799 85 17 9
-0.0092239399 0.00164604 -0.36425799 85 17 9
-0.0075149499 0.00164604 -0.36425799 86 18 10
-0.0058136 0.00165081 -0.36523399 88 20 12
-0.0040969802 0.00165081 -0.36523399 86 21 12
-0.0023860901 0.00165558 -0.366211 87 22 13
-0.00066423399 0.00165558 -0.366211 88 23 14
0.00106144 0.00166035 -0.367432 86 23 13
0.00278854 0.00166035 -0.367432 83 19 12
0.0045280498 0.0016641601 -0.36840799 78 17 9
0.0062751798 0.0016689301 -0.369385 76 15 7
0.0080337496 0.0016737001 -0.370361 74 13 5
0.0098037701 0.0016784701 -0.37133801 73 12 4
0.0115814 0.00168228 -0.37231401 73 12 6
0.0134048 0.00169182 -0.374268 74 13 7
0.0152054 0.00169659 -0.37524399 70 13 6
0.0170135 0.0017004 -0.37646499 70 12 8
-0.041259799 -6.8724199e-05 -0.37524399 74 21 15
-0.039398201 -6.8545298e-05 -0.374268 75 18 11
-0.037445098 -6.8187699e-05 -0.37231401 79 20 13
-0.0355835 -6.80089e-05 -0.37133801 80 21 14
-0.0336609 -6.7591704e-05 -0.369385 82 21 15
-0.0318298 -6.7412897e-05 -0.36840799 87 26 18
-0.030029301 -6.7234003e-05 -0.367432 90 29 21
-0.028228801 -6.7055204e-05 -0.366211 95 34 26
-0.0264282 -6.6876397e-05 -0.36523399 94 33 25
-0.024704 -6.6876397e-05 -0.36523399 93 30 20
-0.022933999 -6.6697598e-05 -0.36425799 91 26 15
-0.0212097 -6.6697598e-05 -0.36425799 91 26 15
-0.019500701 -6.6697598e-05 -0.36425799 94 26 16
-0.0177917 -6.6697598e-05 -0.36425799 90 22 12
-0.016082801 -6.6697598e-05 -0.36425799 92 24 14
-0.0143661 -6.6697598e-05 -0.36425799 86 18 8
-0.0126495 -6.6697598e-05 -0.36425799 83 15 5
-0.0109406 -6.6697598e-05 -0.36425799 84 13 4
-0.0092468299 -6.6876397e-05 -0.36523399 83 15 5
-0.0075340299 -6.6876397e-05 -0.36523399 83 15 7
-0.0058326698 -6.7055204e-05 -0.366211 86 18 10
-0.0041084299 -6.7055204e-05 -0.366211 87 19 11
-0.0023860901 -6.7055204e-05 -0.366211 85 20 11
-0.00066566502 -6.7234003e-05 -0.367432 86 21 12
0.00106144 -6.7234003e-05 -0.367432 83 20 10
0.0027961701 -6.7412897e-05 -0.36840799 83 20 10
0.0045394902 -6.7591704e-05 -0.369385 78 15 5
0.0062751798 -6.7651301e-05 -0.369385 74 13 5
0.0080337496 -6.78301e-05 -0.370361 71 10 2
0.0098037701 -6.80089e-05 -0.37133801 73 12 4
0.0115814 -6.8187699e-05 -0.37231401 71 10 2
0.0134048 -6.8545298e-05 -0.374268 73 12 4
0.0152054 -6.8724199e-05 -0.37524399 70 13 6
-0.041259799 -0.00183392 -0.37524399 75 22 16
-0.039398201 -0.00182915 -0.374268 75 21 13
-0.037445098 -0.0018186599 -0.37231401 77 18 11
-0.0355835 -0.0018138899 -0.37133801 80 19 13
-0.0336609 -0.0018043499 -0.369385 83 22 16
-0.0318298 -0.0017995799 -0.36840799 88 28 17
-0.030029301 -0.00179482 -0.367432 90 30 19
-0.028228801 -0.00179005 -0.366211 98 38 27
-0.0264282 -0.00178432 -0.36523399 94 34 23
-0.024704 -0.00178432 -0.36523399 90 30 19
-0.022933999 -0.00177956 -0.36425799 90 25 16
-0.0212097 -0.00177956 -0.36425799 88 23 12
-0.019500701 -0.00177956 -0.36425799 87 22 11
-0.0177917 -0.00177956 -0.36425799 87 19 9
-0.016082801 -0.00177956 -0.36425799 87 19 9
-0.0143661 -0.00177956 -0.36425799 85 17 7
-0.0126877 -0.00178432 -0.36523399 83 15 5
-0.0109711 -0.00178432 -0.36523399 82 11 2
-0.00927734 -0.00179005 -0.366211 82 14 4
-0.0075531001 -0.00179005 -0.366211 81 13 3
-0.0058326698 -0.00179005 -0.366211 83 15 5
-0.0041198698 -0.00179482 -0.367432 85 17 7
-0.00239372 -0.00179482 -0.367432 83 15 7
-0.00066757202 -0.0017995799 -0.36840799 81 16 7
0.0010643 -0.0017995799 -0.36840799 82 19 9
0.0027961701 -0.0017995799 -0.36840799 78 15 5
0.0045394902 -0.0018043499 -0.369385 77 14 4
0.00629425 -0.0018091199 -0.370361 75 12 2
0.0080566397 -0.0018138899 -0.37133801 73 12 4
0.0098266602 -0.0018186599 -0.37231401 70 11 2
0.0116119 -0.00182438 -0.37329099 70 11 2
0.0134048 -0.00182915 -0.374268 70 11 2
-0.039520301 -0.0035991699 -0.37524399 72 18 10
-0.037536599 -0.0035800899 -0.37329099 76 17 10
-0.0355835 -0.0035610199 -0.37133801 77 16 10
-0.0337524 -0.0035514799 -0.370361 82 18 11
-0.031921402 -0.0035419499 -0.369385 85 22 12
-0.030029301 -0.00352097 -0.367432 90 27 17
-0.028228801 -0.00351143 -0.366211 96 33 23
-0.0265045 -0.00351143 -0.366211 92 29 19
-0.024704 -0.00350189 -0.36523399 90 27 17
-0.022995001 -0.00350189 -0.36523399 87 24 14
-0.0212708 -0.00350189 -0.36523399 87 22 13
-0.019561799 -0.00350189 -0.36523399 87 19 11
-0.0178375 -0.00350189 -0.36523399 87 19 9
-0.0161133 -0.00350189 -0.36523399 86 18 8
-0.0144043 -0.00350189 -0.36523399 82 14 4
-0.0127182 -0.00351143 -0.366211 83 15 5
-0.0110016 -0.00351143 -0.366211 80 12 2
-0.0093002301 -0.00352097 -0.367432 79 11 3
-0.0075759902 -0.00352097 -0.367432 79 11 3
-0.00584793 -0.00352097 -0.367432 79 14 5
-0.0041313199 -0.0035305 -0.36840799 80 15 6
-0.0023994399 -0.0035305 -0.36840799 80 15 6
-0.00066757202 -0.0035305 -0.36840799 81 16 7
0.00106716 -0.0035419499 -0.369385 79 16 6
0.0028037999 -0.0035419499 -0.369385 74 13 5
0.0045509301 -0.0035514799 -0.370361 76 15 7
0.0063095102 -0.0035610199 -0.37133801 73 12 4
0.0080566397 -0.0035610199 -0.37133801 75 16 7
0.0098266602 -0.0035705599 -0.37231401 70 13 4
0.0116425 -0.0035896299 -0.374268 68 11 2
-0.0376282 -0.0053482102 -0.374268 75 18 11
-0.035675 -0.0053214999 -0.37231401 77 18 11
-0.033844002 -0.0053062402 -0.37133801 80 19 11
-0.031921402 -0.00527573 -0.369385 81 15 9
-0.0301056 -0.0052642799 -0.36840799 85 19 13
-0.0283051 -0.0052490202 -0.367432 86 21 12
-0.0265045 -0.00523376 -0.366211 89 21 13
-0.0247803 -0.00523376 -0.366211 87 19 11
-0.022995001 -0.0052185101 -0.36523399 87 19 11
-0.0212708 -0.0052185101 -0.36523399 87 19 11
-0.019561799 -0.0052185101 -0.36523399 86 18 10
-0.0178375 -0.0052185101 -0.36523399 83 15 7
-0.0161591 -0.00523376 -0.366211 82 14 6
-0.0144424 -0.00523376 -0.366211 82 14 6
-0.0127563 -0.0052490202 -0.367432 80 12 4
-0.0110321 -0.0052490202 -0.367432 80 12 4
-0.0093231201 -0.0052642799 -0.36840799 76 13 3
-0.0075950599 -0.0052642799 -0.36840799 77 13 6
-0.0058784499 -0.00527573 -0.369385 76 12 5
-0.0041427598 -0.00527573 -0.369385 78 14 7
-0.0024051699 -0.00527573 -0.369385 78 14 7
-0.00067138701 -0.0052909902 -0.370361 77 13 6
0.00107002 -0.0052909902 -0.370361 74 13 5
0.00281143 -0.0052909902 -0.370361 74 15 6
0.0045661898 -0.0053062402 -0.37133801 73 14 5
0.00632858 -0.0053214999 -0.37231401 73 14 5
0.0080795297 -0.0053214999 -0.37231401 70 13 4
0.0098571796 -0.00533295 -0.37329099 71 17 7
-0.0376282 -0.0071105999 -0.374268 77 18 11
-0.035797101 -0.0070915199 -0.37329099 76 17 10
-0.033844002 -0.0070533799 -0.37133801 77 16 8
-0.032012898 -0.0070342999 -0.370361 80 14 8
-0.030197101 -0.0070152301 -0.369385 81 15 9
-0.028381299 -0.0069961501 -0.36840799 81 16 7
-0.026580799 -0.0069770799 -0.367432 87 16 9
-0.024841299 -0.0069770799 -0.367432 87 16 9
-0.023056 -0.0069580101 -0.366211 87 16 9
-0.0213318 -0.0069580101 -0.366211 85 17 9
-0.019607499 -0.0069580101 -0.366211 82 14 6
-0.017883301 -0.0069580101 -0.366211 83 15 7
-0.0162048 -0.0069770799 -0.367432 82 14 6
-0.0144806 -0.0069770799 -0.367432 78 13 4
-0.0127945 -0.0069961501 -0.36840799 78 13 4
-0.0110626 -0.0069961501 -0.36840799 77 13 6
-0.0093536396 -0.0070152301 -0.369385 74 15 6
-0.0076370202 -0.0070342999 -0.370361 71 14 5
-0.0058937101 -0.0070342999 -0.370361 72 15 6
-0.00415421 -0.0070342999 -0.370361 73 16 7
-0.0024185199 -0.0070533799 -0.37133801 73 16 7
-0.00067329401 -0.0070533799 -0.37133801 70 13 4
0.00107288 -0.0070533799 -0.37133801 71 14 5
0.00282669 -0.0070724501 -0.37231401 70 13 6
0.00457764 -0.0070724501 -0.37231401 70 13 6
0.0063438402 -0.0070915199 -0.37329099 70 13 6
0.0081176804 -0.0071105999 -0.374268 68 11 4
-0.035888702 -0.0088653602 -0.374268 75 16 9
-0.033935498 -0.0088195801 -0.37231401 77 16 8
-0.0321045 -0.00879669 -0.37133801 79 15 8
-0.0302734 -0.0087738 -0.370361 79 15 8
-0.028457601 -0.0087509202 -0.369385 82 13 8
-0.026641799 -0.0087280301 -0.36840799 82 14 6
-0.024841299 -0.0087051401 -0.367432 82 14 6
-0.023117101 -0.0087051401 -0.367432 81 13 5
-0.0213928 -0.0087051401 -0.367432 82 14 6
-0.0196686 -0.0087051401 -0.367432 81 13 5
-0.017990099 -0.0087280301 -0.36840799 78 13 4
-0.016250599 -0.0087280301 -0.36840799 77 14 4
-0.0145645 -0.0087509202 -0.369385 77 14 4
-0.012825 -0.0087509202 -0.369385 75 14 6
-0.011116 -0.0087738 -0.370361 74 15 6
-0.0093994103 -0.00879669 -0.37133801 70 16 6
-0.0076599098 -0.00879669 -0.37133801 69 17 8
-0.00592804 -0.0088195801 -0.37231401 70 18 9
-0.0041770898 -0.0088195801 -0.37231401 71 19 10
-0.00242615 -0.0088195801 -0.37231401 70 18 9
-0.00067520101 -0.0088195801 -0.37231401 67 15 6
0.00107861 -0.0088424701 -0.37329099 67 15 6
0.0028343201 -0.0088424701 -0.37329099 67 15 6
-0.0340271 -0.0105972 -0.37329099 77 18 9
-0.032196 -0.0105743 -0.37231401 76 15 7
-0.030365 -0.0105438 -0.37133801 79 15 8
-0.0285339 -0.0105133 -0.370361 79 13 7
-0.026718101 -0.0104904 -0.369385 80 14 8
-0.0249786 -0.0104904 -0.369385 79 14 5
-0.023178101 -0.0104599 -0.36840799 80 12 4
-0.0214539 -0.0104599 -0.36840799 80 12 4
-0.0197144 -0.0104599 -0.36840799 78 13 4
-0.0180359 -0.0104904 -0.369385 76 13 3
-0.0162964 -0.0104904 -0.369385 74 13 5
-0.0146027 -0.0105133 -0.370361 73 14 5
-0.0128937 -0.0105438 -0.37133801 72 15 6
-0.0111771 -0.0105743 -0.37231401 71 17 7
-0.0094299298 -0.0105743 -0.37231401 69 20 8
-0.00769806 -0.0105972 -0.37329099 69 27 13
-0.032257099 -0.0123596 -0.37329099 76 17 8
-0.030441299 -0.0123215 -0.37231401 76 17 8
-0.0286102 -0.012291 -0.37133801 76 15 7
-0.0267944 -0.0122604 -0.370361 75 14 6
-0.0250549 -0.0122604 -0.370361 76 12 5
-0.0233154 -0.0122604 -0.370361 76 12 5
-0.021560701 -0.0122604 -0.370361 76 12 5
-0.019821201 -0.0122604 -0.370361 73 12 4
-0.0180817 -0.0122604 -0.370361 72 13 4
-0.0163879 -0.012291 -0.37133801 71 14 5
-0.014679 -0.0123215 -0.37231401 70 16 8
-0.0129623 -0.0123596 -0.37329099 71 19 10
-0.028762801 -0.0141144 -0.37329099 76 15 7
-0.0269318 -0.0140762 -0.37231401 75 14 6
-0.025116 -0.0140381 -0.37133801 76 15 7
-0.0233765 -0.0140381 -0.37133801 75 16 7
-0.0216217 -0.0140381 -0.37133801 75 16 7
-0.019928001 -0.0140762 -0.37231401 70 16 6
-0.018188501 -0.0140762 -0.37231401 68 14 6
0.33984399 -0.106567 -0.37133801 93 86 76
0.3396 -0.106018 -0.369385 93 86 76
0.34057599 -0.105713 -0.36840799 93 86 76
0.34130901 -0.105408 -0.367432 93 86 76
0.34106401 -0.104858 -0.36523399 93 86 76
0.34204099 -0.104553 -0.36425799 93 86 76
0.33984399 -0.108337 -0.37133801 93 92 77
0.3396 -0.107727 -0.369385 93 92 77
0.3396 -0.107178 -0.367432 93 92 77
0.340332 -0.106873 -0.366211 93 92 77
0.34106401 -0.106567 -0.36523399 93 92 77
0.34106401 -0.105957 -0.36328101 93 92 77
0.34179699 -0.105713 -0.36230499 93 92 77
0.342529 -0.105408 -0.36132801 93 92 77
0.33886701 -0.110352 -0.37231401 91 89 77
0.33886701 -0.109802 -0.370361 91 89 77
0.3396 -0.109497 -0.369385 91 89 77
0.3396 -0.108887 -0.367432 91 89 77
0.33935499 -0.108276 -0.36523399 91 89 77
0.340332 -0.107971 -0.36425799 91 89 77
0.34106401 -0.107666 -0.36328101 91 89 77
0.34082001 -0.107117 -0.36132801 91 89 77
0.341553 -0.106812 -0.36035201 91 89 77
0.34228501 -0.106506 -0.359375 91 89 77
0.34399399 -0.106506 -0.359375 91 89 77
0.33886701 -0.112122 -0.37231401 86 84 74
0.33886701 -0.111511 -0.370361 86 84 74
0.33886701 -0.110901 -0.36840799 86 84 74
0.33862299 -0.110291 -0.366211 86 84 74
0.33935499 -0.109985 -0.36523399 86 84 74
0.33935499 -0.109375 -0.36328101 86 84 74
0.34008801 -0.109131 -0.36230499 86 84 74
0.34082001 -0.108826 -0.36132801 86 84 74
0.341553 -0.108521 -0.36035201 86 84 74
0.34228501 -0.108215 -0.359375 86 84 74
0.343018 -0.10791 -0.35839799 86 84 74
0.34472701 -0.10791 -0.35839799 86 84 74
0.338135 -0.114197 -0.37329099 92 88 77
0.338135 -0.113586 -0.37133801 92 88 77
0.33789101 -0.112976 -0.369385 92 88 77
0.33789101 -0.112366 -0.367432 92 88 77
0.33764601 -0.111755 -0.36523399 92 88 77
0.33862299 -0.111389 -0.36425799 92 88 77
0.338379 -0.110779 -0.36230499 92 88 77
0.339111 -0.110474 -0.36132801 92 88 77
0.33984399 -0.110168 -0.36035201 92 88 77
0.34057599 -0.109863 -0.359375 92 88 77
0.34130901 -0.109558 -0.35839799 92 88 77
0.343018 -0.109558 -0.35839799 92 88 77
0.34375 -0.109253 -0.357178 92 88 77
0.33715799 -0.116272 -0.374268 96 87 80
0.33715799 -0.115601 -0.37231401 96 87 80
0.33715799 -0.11499 -0.370361 96 87 80
0.33715799 -0.11438 -0.36840799 96 87 80
0.336914 -0.11377 -0.366211 96 87 80
0.336914 -0.113159 -0.36425799 96 87 80
0.33764601 -0.112793 -0.36328101 96 87 80
0.33740199 -0.112183 -0.36132801 96 87 80
0.338135 -0.111877 -0.36035201 96 87 80
0.33886701 -0.111572 -0.359375 96 87 80
0.3396 -0.111267 -0.35839799 96 87 80
0.34130901 -0.111267 -0.35839799 96 87 80
0.34204099 -0.110962 -0.357178 96 87 80
0.34375 -0.110962 -0.357178 96 87 80
0.34545901 -0.110962 -0.357178 96 87 80
0.33544901 -0.117981 -0.374268 99 92 84
0.33544901 -0.117371 -0.37231401 99 92 84
0.33544901 -0.11676 -0.370361 99 92 84
0.33520499 -0.116089 -0.36840799 99 92 84
0.33520499 -0.115479 -0.366211 99 92 84
0.33593801 -0.115173 -0.36523399 99 92 84
0.33593801 -0.114502 -0.36328101 99 92 84
0.335693 -0.113892 -0.36132801 99 92 84
0.33642599 -0.113586 -0.36035201 99 92 84
0.33715799 -0.113281 -0.359375 99 92 84
0.33789101 -0.112976 -0.35839799 99 92 84
0.33862299 -0.11261 -0.357178 99 92 84
0.340332 -0.11261 -0.357178 99 92 84
0.34106401 -0.112305 -0.35620099 99 92 84
0.34277299 -0.112305 -0.35620099 99 92 84
0.344482 -0.112305 -0.35620099 99 92 84
0.34521499 -0.112 -0.355225 99 92 84
0.33374 -0.119751 -0.374268 92 93 82
0.33471701 -0.119446 -0.37329099 92 93 82
0.33447301 -0.118835 -0.37133801 92 93 82
0.33447301 -0.118164 -0.369385 92 93 82
0.33447301 -0.117554 -0.367432 92 93 82
0.33422899 -0.116882 -0.36523399 92 93 82
0.33422899 -0.116211 -0.36328101 92 93 82
0.334961 -0.115906 -0.36230499 92 93 82
0.33471701 -0.115295 -0.36035201 92 93 82
0.33544901 -0.114929 -0.359375 92 93 82
0.336182 -0.114624 -0.35839799 92 93 82
0.336914 -0.114319 -0.357178 92 93 82
0.33862299 -0.114319 -0.357178 92 93 82
0.33935499 -0.114014 -0.35620099 92 93 82
0.34008801 -0.113647 -0.355225 92 93 82
0.34179699 -0.113647 -0.355225 92 93 82
0.342529 -0.113342 -0.35424799 92 93 82
0.34326199 -0.113037 -0.35327101 92 93 82
0.332764 -0.121216 -0.37329099 91 89 77
0.33374 -0.120911 -0.37231401 91 89 77
0.33374 -0.120239 -0.370361 91 89 77
0.333496 -0.119568 -0.36840799 91 89 77
0.333496 -0.118896 -0.366211 91 89 77
0.33325201 -0.118286 -0.36425799 91 89 77
0.33325201 -0.117615 -0.36230499 91 89 77
0.33300799 -0.116943 -0.36035201 91 89 77
0.33374 -0.116638 -0.359375 91 89 77
0.33447301 -0.116333 -0.35839799 91 89 77
0.33544901 -0.115967 -0.357178 91 89 77
0.336182 -0.115662 -0.35620099 91 89 77
0.33764601 -0.115662 -0.35620099 91 89 77
0.338379 -0.115356 -0.355225 91 89 77
0.339111 -0.11499 -0.35424799 91 89 77
0.34082001 -0.11499 -0.35424799 91 89 77
0.341553 -0.114685 -0.35327101 91 89 77
0.34228501 -0.11438 -0.35229501 91 89 77
0.34204099 -0.113708 -0.35034201 91 89 77
0.342529 -0.113403 -0.349121 91 89 77
0.33203101 -0.123291 -0.374268 97 93 84
0.33203101 -0.12262 -0.37231401 97 93 84
0.332764 -0.122314 -0.37133801 97 93 84
0.332764 -0.121643 -0.369385 97 93 84
0.332764 -0.120972 -0.367432 97 93 84
0.331543 -0.119995 -0.36425799 97 93 84
0.331543 -0.119324 -0.36230499 97 93 84
0.332275 -0.119019 -0.36132801 97 93 84
0.33203101 -0.118347 -0.359375 97 93 84
0.33300799 -0.117981 -0.35839799 97 93 84
0.33374 -0.117676 -0.357178 97 93 84
0.33447301 -0.117371 -0.35620099 97 93 84
0.33520499 -0.117004 -0.355225 97 93 84
0.33593801 -0.116699 -0.35424799 97 93 84
0.33740199 -0.116699 -0.35424799 97 93 84
0.338135 -0.116333 -0.35327101 97 93 84
0.33886701 -0.116028 -0.35229501 97 93 84
0.3396 -0.115662 -0.351318 97 93 84
0.340332 -0.115356 -0.35034201 97 93 84
0.34082001 -0.115051 -0.349121 97 93 84
0.341553 -0.114685 -0.34814501 97 93 84
0.33105499 -0.124695 -0.37329099 93 91 81
0.33105499 -0.124023 -0.37133801 93 91 81
0.33203101 -0.123718 -0.370361 93 91 81
0.33178699 -0.123047 -0.36840799 93 91 81
0.33178699 -0.122375 -0.366211 93 91 81
0.33081099 -0.121338 -0.36328101 93 91 81
0.33056599 -0.120667 -0.36132801 93 91 81
0.33056599 -0.119995 -0.359375 93 91 81
0.33129901 -0.11969 -0.35839799 93 91 81
0.33203101 -0.119324 -0.357178 93 91 81
0.332764 -0.119019 -0.35620099 93 91 81
0.333496 -0.118652 -0.355225 93 91 81
0.33422899 -0.118347 -0.35424799 93 91 81
0.334961 -0.118042 -0.35327101 93 91 81
0.33667001 -0.118042 -0.35327101 93 91 81
0.33715799 -0.117676 -0.35229501 93 91 81
0.33789101 -0.117371 -0.351318 93 91 81
0.33862299 -0.117004 -0.35034201 93 91 81
0.33935499 -0.116699 -0.349121 93 91 81
0.33984399 -0.116333 -0.34814501 93 91 81
0.3396 -0.115662 -0.34619099 93 91 81
0.330322 -0.126831 -0.374268 93 91 81
0.330322 -0.12609901 -0.37231401 93 91 81
0.33007801 -0.125366 -0.370361 93 91 81
0.33105499 -0.125122 -0.369385 93 91 81
0.33105499 -0.124451 -0.367432 93 91 81
0.33081099 -0.123779 -0.36523399 93 91 81
0.32983401 -0.122742 -0.36230499 93 91 81
0.32958999 -0.12207 -0.36035201 93 91 81
0.32958999 -0.121399 -0.35839799 93 91 81
0.330322 -0.121033 -0.357178 93 91 81
0.33105499 -0.120667 -0.35620099 93 91 81
0.33178699 -0.120361 -0.355225 93 91 81
0.33252001 -0.119995 -0.35424799 93 91 81
0.33325201 -0.11969 -0.35327101 93 91 81
0.33398399 -0.119324 -0.35229501 93 91 81
0.335693 -0.119324 -0.35229501 93 91 81
0.336182 -0.119019 -0.351318 93 91 81
0.336914 -0.118652 -0.35034201 93 91 81
0.33764601 -0.118286 -0.349121 93 91 81
0.338379 -0.117981 -0.34814501 93 91 81
0.33789101 -0.11731 -0.34619099 93 91 81
0.33862299 -0.116943 -0.34521499 93 91 81
0.33935499 -0.116638 -0.34423801 93 91 81
0.32836899 -0.12853999 -0.374268 100 98 88
0.329346 -0.12817401 -0.37329099 100 98 88
0.329346 -0.127563 -0.37133801 100 98 88
0.329346 -0.126831 -0.369385 100 98 88
0.33007801 -0.12646499 -0.36840799 100 98 88
0.33007801 -0.125732 -0.366211 100 98 88
0.32910201 -0.124756 -0.36328101 100 98 88
0.328857 -0.124084 -0.36132801 100 98 88
0.328857 -0.123413 -0.359375 100 98 88
0.32958999 -0.123047 -0.35839799 100 98 88
0.329346 -0.122375 -0.35620099 100 98 88
0.33007801 -0.122009 -0.355225 100 98 88
0.33081099 -0.121704 -0.35424799 100 98 88
0.331543 -0.121338 -0.35327101 100 98 88
0.332275 -0.120972 -0.35229501 100 98 88
0.33398399 -0.120972 -0.35229501 100 98 88
0.33471701 -0.120667 -0.351318 100 98 88
0.33544901 -0.1203 -0.35034201 100 98 88
0.33593801 -0.119934 -0.349121 100 98 88
0.33667001 -0.119629 -0.34814501 100 98 88
0.33642599 -0.118896 -0.34619099 100 98 88
0.336914 -0.118591 -0.34521499 100 98 88
0.33764601 -0.118225 -0.34423801 100 98 88
0.338379 -0.117859 -0.34326199 100 98 88
0.32763699 -0.130005 -0.37329099 101 102 89
0.32836899 -0.129639 -0.37231401 101 102 89
0.32836899 -0.128906 -0.370361 101 102 89
0.32836899 -0.12817401 -0.36840799 101 102 89
0.32836899 -0.127563 -0.366211 101 102 89
0.328125 -0.126831 -0.36425799 101 102 89
0.328125 -0.12609901 -0.36230499 101 102 89
0.32788101 -0.125366 -0.36035201 101 102 89
0.328857 -0.125122 -0.359375 101 102 89
0.32861301 -0.12439 -0.357178 101 102 89
0.329346 -0.124023 -0.35620099 101 102 89
0.32910201 -0.123352 -0.35424799 101 102 89
0.32983401 -0.122986 -0.35327101 101 102 89
0.33056599 -0.12262 -0.35229501 101 102 89
0.332275 -0.12262 -0.35229501 101 102 89
0.33300799 -0.122314 -0.351318 101 102 89
0.33374 -0.121948 -0.35034201 101 102 89
0.33447301 -0.121582 -0.349121 101 102 89
0.334961 -0.121277 -0.34814501 101 102 89
0.335693 -0.120911 -0.347168 101 102 89
0.33544901 -0.120178 -0.34521499 101 102 89
0.33593801 -0.119873 -0.34423801 101 102 89
0.33667001 -0.119507 -0.34326199 101 102 89
0.33740199 -0.119141 -0.34228501 101 102 89
0.32666001 -0.131348 -0.37231401 96 97 86
0.32763699 -0.130981 -0.37133801 96 97 86
0.32666001 -0.12988301 -0.36840799 96 97 86
0.327393 -0.129639 -0.367432 96 97 86
0.327393 -0.128906 -0.36523399 96 97 86
0.327393 -0.12817401 -0.36328101 96 97 86
0.32714799 -0.127441 -0.36132801 96 97 86
0.32788101 -0.127075 -0.36035201 96 97 86
0.32788101 -0.126343 -0.35839799 96 97 86
0.32763699 -0.125732 -0.35620099 96 97 86
0.32836899 -0.125366 -0.355225 96 97 86
0.32910201 -0.125 -0.35424799 96 97 86
0.32983401 -0.124634 -0.35327101 96 97 86
0.33056599 -0.124329 -0.35229501 96 97 86
0.33129901 -0.123962 -0.351318 96 97 86
0.33203101 -0.123596 -0.35034201 96 97 86
0.332764 -0.12323 -0.349121 96 97 86
0.333496 -0.122864 -0.34814501 96 97 86
0.33398399 -0.122559 -0.347168 96 97 86
0.33374 -0.121826 -0.34521499 96 97 86
0.33447301 -0.12146 -0.34423801 96 97 86
0.334961 -0.121094 -0.34326199 96 97 86
0.335693 -0.120789 -0.34228501 96 97 86
0.33642599 -0.120422 -0.34130901 96 97 86
0.33789101 -0.120422 -0.34130901 96 97 86
0.32495099 -0.13244601 -0.370361 93 91 83
0.32495099 -0.131714 -0.36840799 93 91 83
0.32568401 -0.131348 -0.367432 93 91 83
0.32666001 -0.130981 -0.366211 93 91 83
0.32641599 -0.13024899 -0.36425799 93 91 83
0.32641599 -0.129517 -0.36230499 93 91 83
0.32641599 -0.128784 -0.36035201 93 91 83
0.32714799 -0.128418 -0.359375 93 91 83
0.32788101 -0.128052 -0.35839799 93 91 83
0.32763699 -0.12731899 -0.35620099 93 91 83
0.32836899 -0.12695301 -0.355225 93 91 83
0.328125 -0.126343 -0.35327101 93 91 83
0.328857 -0.12597699 -0.35229501 93 91 83
0.32958999 -0.12560999 -0.351318 93 91 83
0.330322 -0.12524401 -0.35034201 93 91 83
0.33105499 -0.124878 -0.349121 93 91 83
0.33178699 -0.124512 -0.34814501 93 91 83
0.331543 -0.123779 -0.34619099 93 91 83
0.33203101 -0.123474 -0.34521499 93 91 83
0.332764 -0.123108 -0.34423801 93 91 83
0.333496 -0.122742 -0.34326199 93 91 83
0.33398399 -0.122375 -0.34228501 93 91 83
0.33471701 -0.122009 -0.34130901 93 91 83
0.33520499 -0.121643 -0.34008801 93 91 83
0.336914 -0.121643 -0.34008801 93 91 83
0.325928 -0.135254 -0.37329099 91 96 86
0.325928 -0.13452099 -0.37133801 91 96 86
0.32495099 -0.133423 -0.36840799 91 96 86
0.32495099 -0.13269 -0.366211 91 96 86
0.32568401 -0.132324 -0.36523399 91 96 86
0.32568401 -0.13159201 -0.36328101 91 96 86
0.32543901 -0.130859 -0.36132801 91 96 86
0.32641599 -0.130493 -0.36035201 91 96 86
0.32617199 -0.129761 -0.35839799 91 96 86
0.326904 -0.12939499 -0.357178 91 96 86
0.32763699 -0.12902801 -0.35620099 91 96 86
0.327393 -0.128296 -0.35424799 91 96 86
0.328125 -0.12793 -0.35327101 91 96 86
0.328125 -0.127197 -0.351318 91 96 86
0.328857 -0.126831 -0.35034201 91 96 86
0.329346 -0.12646499 -0.349121 91 96 86
0.33007801 -0.12609901 -0.34814501 91 96 86
0.32983401 -0.125366 -0.34619099 91 96 86
0.33056599 -0.125 -0.34521499 91 96 86
0.33129901 -0.124695 -0.34423801 91 96 86
0.33081099 -0.123962 -0.34228501 91 96 86
0.331543 -0.123596 -0.34130901 91 96 86
0.33203101 -0.12323 -0.34008801 91 96 86
0.332764 -0.122864 -0.339111 91 96 86
0.33422899 -0.122864 -0.339111 91 96 86
0.33593801 -0.122864 -0.339111 91 96 86
0.325928 -0.13696299 -0.37329099 98 94 87
0.325928 -0.13623001 -0.37133801 98 94 87
0.32568401 -0.135498 -0.369385 98 94 87
0.323975 -0.13403299 -0.36523399 98 94 87
0.323975 -0.133301 -0.36328101 98 94 87
0.324707 -0.132935 -0.36230499 98 94 87
0.32543901 -0.132568 -0.36132801 98 94 87
0.32543901 -0.131836 -0.359375 98 94 87
0.32617199 -0.13146999 -0.35839799 98 94 87
0.326904 -0.13110401 -0.357178 98 94 87
0.32666001 -0.130371 -0.355225 98 94 87
0.327393 -0.130005 -0.35424799 98 94 87
0.327393 -0.129272 -0.35229501 98 94 87
0.328125 -0.128906 -0.351318 98 94 87
0.32788101 -0.12817401 -0.349121 98 94 87
0.32861301 -0.127808 -0.34814501 98 94 87
0.328125 -0.127075 -0.34619099 98 94 87
0.328857 -0.126709 -0.34521499 98 94 87
0.32958999 -0.126343 -0.34423801 98 94 87
0.329346 -0.12560999 -0.34228501 98 94 87
0.32983401 -0.12524401 -0.34130901 98 94 87
0.33056599 -0.124878 -0.34008801 98 94 87
0.33105499 -0.124512 -0.339111 98 94 87
0.33178699 -0.124146 -0.338135 98 94 87
0.33325201 -0.124146 -0.338135 98 94 87
0.33398399 -0.123779 -0.33715799 98 94 87
0.325928 -0.138794 -0.37329099 104 100 93
0.32495099 -0.137573 -0.370361 104 100 93
0.323975 -0.136475 -0.367432 104 100 93
0.323975 -0.13574199 -0.36523399 104 100 93
0.32299799 -0.134644 -0.36230499 104 100 93
0.324707 -0.134644 -0.36230499 104 100 93
0.324707 -0.133911 -0.36035201 104 100 93
0.32543901 -0.133545 -0.359375 104 100 93
0.32617199 -0.13317899 -0.35839799 104 100 93
0.325928 -0.13244601 -0.35620099 104 100 93
0.32666001 -0.13208 -0.355225 104 100 93
0.32666001 -0.131226 -0.35327101 104 100 93
0.327393 -0.130859 -0.35229501 104 100 93
0.32714799 -0.130127 -0.35034201 104 100 93
0.326904 -0.12939499 -0.34814501 104 100 93
0.32763699 -0.12902801 -0.347168 104 100 93
0.327393 -0.128296 -0.34521499 104 100 93
0.32788101 -0.12793 -0.34423801 104 100 93
0.32763699 -0.127197 -0.34228501 104 100 93
0.32836899 -0.126831 -0.34130901 104 100 93
0.328857 -0.12646499 -0.34008801 104 100 93
0.32958999 -0.12609901 -0.339111 104 100 93
0.33007801 -0.125732 -0.338135 104 100 93
0.33081099 -0.12524401 -0.33715799 104 100 93
0.332275 -0.12524401 -0.33715799 104 100 93
0.33300799 -0.124939 -0.336182 104 100 93
0.32324201 -0.140137 -0.37231401 98 96 86
0.32324201 -0.139404 -0.370361 98 96 86
0.32324201 -0.13855 -0.36840799 98 96 86
0.323975 -0.138184 -0.367432 98 96 86
0.32299799 -0.13708501 -0.36425799 98 96 86
0.32299799 -0.136353 -0.36230499 98 96 86
0.32372999 -0.135986 -0.36132801 98 96 86
0.324707 -0.13562 -0.36035201 98 96 86
0.32543901 -0.135254 -0.359375 98 96 86
0.32519501 -0.134399 -0.357178 98 96 86
0.325928 -0.13403299 -0.35620099 98 96 86
0.325928 -0.133301 -0.35424799 98 96 86
0.32568401 -0.132568 -0.35229501 98 96 86
0.32641599 -0.132202 -0.351318 98 96 86
0.32617199 -0.13146999 -0.349121 98 96 86
0.326904 -0.13110401 -0.34814501 98 96 86
0.32666001 -0.13024899 -0.34619099 98 96 86
0.32641599 -0.129517 -0.34423801 98 96 86
0.326904 -0.12915 -0.34326199 98 96 86
0.32666001 -0.128418 -0.34130901 98 96 86
0.327393 -0.128052 -0.34008801 98 96 86
0.32788101 -0.12768599 -0.339111 98 96 86
0.32861301 -0.12731899 -0.338135 98 96 86
0.32910201 -0.126831 -0.33715799 98 96 86
0.32983401 -0.12646499 -0.336182 98 96 86
0.33129901 -0.12646499 -0.336182 98 96 86
0.33300799 -0.12646499 -0.336182 98 96 86
0.32324201 -0.141846 -0.37231401 96 89 81
0.32324201 -0.141113 -0.370361 96 89 81
0.32324201 -0.14038099 -0.36840799 96 89 81
0.323975 -0.139893 -0.367432 96 89 81
0.32299799 -0.138794 -0.36425799 96 89 81
0.323975 -0.138428 -0.36328101 96 89 81
0.32372999 -0.137695 -0.36132801 96 89 81
0.324707 -0.137329 -0.36035201 96 89 81
0.32446301 -0.136475 -0.35839799 96 89 81
0.32519501 -0.136108 -0.357178 96 89 81
0.32519501 -0.13537601 -0.355225 96 89 81
0.32495099 -0.134644 -0.35327101 96 89 81
0.32568401 -0.13415501 -0.35229501 96 89 81
0.32543901 -0.133423 -0.35034201 96 89 81
0.32617199 -0.133057 -0.349121 96 89 81
0.325928 -0.132324 -0.347168 96 89 81
0.32568401 -0.13159201 -0.34521499 96 89 81
0.32641599 -0.13110401 -0.34423801 96 89 81
0.325928 -0.130371 -0.34228501 96 89 81
0.32666001 -0.130005 -0.34130901 96 89 81
0.327393 -0.129639 -0.34008801 96 89 81
0.326904 -0.128906 -0.338135 96 89 81
0.32763699 -0.128418 -0.33715799 96 89 81
0.32910201 -0.128418 -0.33715799 96 89 81
0.32983401 -0.128052 -0.336182 96 89 81
0.330322 -0.12768599 -0.33520499 96 89 81
0.33203101 -0.12768599 -0.33520499 96 89 81
0.32324201 -0.143677 -0.37231401 96 89 79
0.32324201 -0.142822 -0.370361 96 89 79
0.32226601 -0.14172401 -0.367432 96 89 79
0.323975 -0.14172401 -0.367432 96 89 79
0.32299799 -0.140503 -0.36425799 96 89 79
0.323975 -0.140137 -0.36328101 96 89 79
0.32372999 -0.139404 -0.36132801 96 89 79
0.324707 -0.138916 -0.36035201 96 89 79
0.32446301 -0.138184 -0.35839799 96 89 79
0.32519501 -0.137817 -0.357178 96 89 79
0.32519501 -0.13708501 -0.355225 96 89 79
0.32495099 -0.13623001 -0.35327101 96 89 79
0.324707 -0.135498 -0.351318 96 89 79
0.32543901 -0.135132 -0.35034201 96 89 79
0.32519501 -0.134277 -0.34814501 96 89 79
0.32495099 -0.133545 -0.34619099 96 89 79
0.32568401 -0.13317899 -0.34521499 96 89 79
0.32543901 -0.13244601 -0.34326199 96 89 79
0.325928 -0.13195799 -0.34228501 96 89 79
0.32568401 -0.131226 -0.34008801 96 89 79
0.32641599 -0.130859 -0.339111 96 89 79
0.326904 -0.130493 -0.338135 96 89 79
0.32763699 -0.130005 -0.33715799 96 89 79
0.328125 -0.129639 -0.336182 96 89 79
0.32983401 -0.129639 -0.336182 96 89 79
0.330322 -0.129272 -0.33520499 96 89 79
0.33203101 -0.129272 -0.33520499 96 89 79
0.32324201 -0.145386 -0.37231401 96 89 79
0.323975 -0.14501999 -0.37133801 96 89 79
0.32226601 -0.143433 -0.367432 96 89 79
0.32324201 -0.143066 -0.366211 96 89 79
0.32299799 -0.142212 -0.36425799 96 89 79
0.323975 -0.141846 -0.36328101 96 89 79
0.324707 -0.141479 -0.36230499 96 89 79
0.324707 -0.140625 -0.36035201 96 89 79
0.32446301 -0.139893 -0.35839799 96 89 79
0.32421899 -0.139038 -0.35620099 96 89 79
0.32421899 -0.13830601 -0.35424799 96 89 79
0.323975 -0.137573 -0.35229501 96 89 79
0.324707 -0.13708501 -0.351318 96 89 79
0.32446301 -0.136353 -0.349121 96 89 79
0.32421899 -0.13562 -0.347168 96 89 79
0.32495099 -0.135132 -0.34619099 96 89 79
0.324707 -0.134399 -0.34423801 96 89 79
0.32543901 -0.13403299 -0.34326199 96 89 79
0.32519501 -0.13317899 -0.34130901 96 89 79
0.32568401 -0.13281301 -0.34008801 96 89 79
0.32641599 -0.13244601 -0.339111 96 89 79
0.326904 -0.13208 -0.338135 96 89 79
0.32763699 -0.13159201 -0.33715799 96 89 79
0.328125 -0.131226 -0.336182 96 89 79
0.328857 -0.130859 -0.33520499 96 89 79
0.330322 -0.130859 -0.33520499 96 89 79
0.33203101 -0.130859 -0.33520499 96 89 79
0.323975 -0.147461 -0.37329099 96 89 79
0.323975 -0.14672901 -0.37133801 96 89 79
0.32324201 -0.14550801 -0.36840799 96 89 79
0.32324201 -0.144775 -0.366211 96 89 79
0.323975 -0.14428701 -0.36523399 96 89 79
0.323975 -0.143555 -0.36328101 96 89 79
0.324707 -0.143188 -0.36230499 96 89 79
0.324707 -0.142334 -0.36035201 96 89 79
0.32446301 -0.14160199 -0.35839799 96 89 79
0.32421899 -0.140747 -0.35620099 96 89 79
0.32421899 -0.14001501 -0.35424799 96 89 79
0.323975 -0.13916001 -0.35229501 96 89 79
0.32372999 -0.138428 -0.35034201 96 89 79
0.323486 -0.137573 -0.34814501 96 89 79
0.32421899 -0.137207 -0.347168 96 89 79
0.323975 -0.136353 -0.34521499 96 89 79
0.324707 -0.135986 -0.34423801 96 89 79
0.32543901 -0.13562 -0.34326199 96 89 79
0.32519501 -0.134766 -0.34130901 96 89 79
0.32568401 -0.134399 -0.34008801 96 89 79
0.32641599 -0.13403299 -0.339111 96 89 79
0.326904 -0.13366701 -0.338135 96 89 79
0.32763699 -0.13317899 -0.33715799 96 89 79
0.328125 -0.13281301 -0.336182 96 89 79
0.328857 -0.13244601 -0.33520499 96 89 79
0.330322 -0.13244601 -0.33520499 96 89 79
0.33203101 -0.13244601 -0.33520499 96 89 79
0.323975 -0.14929201 -0.37329099 96 89 79
0.323975 -0.14843801 -0.37133801 96 89 79
0.32324201 -0.14721701 -0.36840799 96 89 79
0.32324201 -0.146484 -0.366211 96 89 79
0.323975 -0.146118 -0.36523399 96 89 79
0.323975 -0.145264 -0.36328101 96 89 79
0.324707 -0.144897 -0.36230499 96 89 79
0.324707 -0.144043 -0.36035201 96 89 79
0.32543901 -0.143677 -0.359375 96 89 79
0.32421899 -0.142456 -0.35620099 96 89 79
0.32324201 -0.14123499 -0.35327101 96 89 79
0.32299799 -0.14038099 -0.351318 96 89 79
0.322754 -0.13964801 -0.349121 96 89 79
0.323486 -0.139282 -0.34814501 96 89 79
0.32324201 -0.138428 -0.34619099 96 89 79
0.323975 -0.138062 -0.34521499 96 89 79
0.324707 -0.137573 -0.34423801 96 89 79
0.32446301 -0.136841 -0.34228501 96 89 79
0.32519501 -0.136475 -0.34130901 96 89 79
0.32568401 -0.135986 -0.34008801 96 89 79
0.32543901 -0.135254 -0.338135 96 89 79
0.325928 -0.134766 -0.33715799 96 89 79
0.32763699 -0.134766 -0.33715799 96 89 79
0.328125 -0.134399 -0.336182 96 89 79
0.328857 -0.13403299 -0.33520499 96 89 79
0.330322 -0.13403299 -0.33520499 96 89 79
0.33203101 -0.13403299 -0.33520499 96 89 79
0.323975 -0.15100101 -0.37329099 96 89 79
0.32495099 -0.150635 -0.37231401 96 89 79
0.323975 -0.149414 -0.369385 96 89 79
0.32324201 -0.148193 -0.366211 96 89 79
0.323975 -0.147827 -0.36523399 96 89 79
0.323975 -0.146973 -0.36328101 96 89 79
0.324707 -0.146606 -0.36230499 96 89 79
0.324707 -0.145752 -0.36035201 96 89 79
0.32543901 -0.145386 -0.359375 96 89 79
0.32421899 -0.14416499 -0.35620099 96 89 79
0.32226601 -0.142456 -0.35229501 96 89 79
0.32226601 -0.14172401 -0.35034201 96 89 79
0.322754 -0.14123499 -0.349121 96 89 79
0.322754 -0.140503 -0.347168 96 89 79
0.32324201 -0.14001501 -0.34619099 96 89 79
0.32299799 -0.139282 -0.34423801 96 89 79
0.32372999 -0.138794 -0.34326199 96 89 79
0.32446301 -0.138428 -0.34228501 96 89 79
0.32519501 -0.138062 -0.34130901 96 89 79
0.324707 -0.137207 -0.339111 96 89 79
0.32543901 -0.136841 -0.338135 96 89 79
0.325928 -0.136353 -0.33715799 96 89 79
0.32666001 -0.135986 -0.336182 96 89 79
0.328125 -0.135986 -0.336182 96 89 79
0.328857 -0.13562 -0.33520499 96 89 79
0.330322 -0.13562 -0.33520499 96 89 79
0.33203101 -0.13562 -0.33520499 96 89 79
0.32495099 -0.152344 -0.37231401 96 89 79
0.323975 -0.151123 -0.369385 96 89 79
0.323975 -0.150269 -0.367432 96 89 79
0.323975 -0.149536 -0.36523399 96 89 79
0.323975 -0.148682 -0.36328101 96 89 79
0.324707 -0.148315 -0.36230499 96 89 79
0.32543901 -0.147827 -0.36132801 96 89 79
0.32543901 -0.146973 -0.359375 96 89 79
0.32421899 -0.145752 -0.35620099 96 89 79
0.32153299 -0.14379901 -0.351318 96 89 79
0.32226601 -0.14331099 -0.35034201 96 89 79
0.32202101 -0.142456 -0.34814501 96 89 79
0.322754 -0.14208999 -0.347168 96 89 79
0.32324201 -0.14172401 -0.34619099 96 89 79
0.32299799 -0.14086901 -0.34423801 96 89 79
0.32372999 -0.140503 -0.34326199 96 89 79
0.32446301 -0.14001501 -0.34228501 96 89 79
0.32421899 -0.139282 -0.34008801 96 89 79
0.324707 -0.138794 -0.339111 96 89 79
0.32543901 -0.138428 -0.338135 96 89 79
0.325928 -0.13793901 -0.33715799 96 89 79
0.32666001 -0.137573 -0.336182 96 89 79
0.32714799 -0.137207 -0.33520499 96 89 79
0.328857 -0.137207 -0.33520499 96 89 79
0.330322 -0.137207 -0.33520499 96 89 79
0.33105499 -0.136719 -0.33422899 96 89 79
0.32324201 -0.154175 -0.37231401 96 89 79
0.32324201 -0.15332 -0.370361 96 89 79
0.32324201 -0.152466 -0.36840799 96 89 79
0.323975 -0.1521 -0.367432 96 89 79
0.323975 -0.151245 -0.36523399 96 89 79
0.323975 -0.150391 -0.36328101 96 89 79
0.324707 -0.150024 -0.36230499 96 89 79
0.32543901 -0.149536 -0.36132801 96 89 79
0.32543901 -0.148682 -0.359375 96 89 79
0.32080099 -0.14587399 -0.35229501 96 89 79
0.32226601 -0.14587399 -0.35229501 96 89 79
0.321289 -0.144531 -0.349121 96 89 79
0.32202101 -0.14416499 -0.34814501 96 89 79
0.322754 -0.143677 -0.347168 96 89 79
0.32324201 -0.14331099 -0.34619099 96 89 79
0.32299799 -0.142456 -0.34423801 96 89 79
0.32372999 -0.14208999 -0.34326199 96 89 79
0.32446301 -0.14160199 -0.34228501 96 89 79
0.32421899 -0.14086901 -0.34008801 96 89 79
0.324707 -0.14038099 -0.339111 96 89 79
0.32543901 -0.14001501 -0.338135 96 89 79
0.325928 -0.13952599 -0.33715799 96 89 79
0.32666001 -0.13916001 -0.336182 96 89 79
0.32714799 -0.138794 -0.33520499 96 89 79
0.328857 -0.138794 -0.33520499 96 89 79
0.330322 -0.138794 -0.33520499 96 89 79
0.33105499 -0.13830601 -0.33422899 96 89 79
0.32324201 -0.155884 -0.37231401 96 89 79
0.32324201 -0.155029 -0.370361 96 89 79
0.32324201 -0.154175 -0.36840799 96 89 79
0.32324201 -0.15332 -0.366211 96 89 79
0.32299799 -0.152466 -0.36425799 96 89 79
0.323975 -0.1521 -0.36328101 96 89 79
0.324707 -0.151733 -0.36230499 96 89 79
0.32543901 -0.151245 -0.36132801 96 89 79
0.323486 -0.149536 -0.357178 96 89 79
0.32153299 -0.147949 -0.35327101 96 89 79
0.32226601 -0.147461 -0.35229501 96 89 79
0.32226601 -0.146606 -0.35034201 96 89 79
0.32202101 -0.145752 -0.34814501 96 89 79
0.322754 -0.145386 -0.347168 96 89 79
0.32324201 -0.144897 -0.34619099 96 89 79
0.32299799 -0.14416499 -0.34423801 96 89 79
0.32372999 -0.143677 -0.34326199 96 89 79
0.32446301 -0.14331099 -0.34228501 96 89 79
0.32421899 -0.142456 -0.34008801 96 89 79
0.324707 -0.141968 -0.339111 96 89 79
0.32543901 -0.14160199 -0.338135 96 89 79
0.325928 -0.141113 -0.33715799 96 89 79
0.32666001 -0.140747 -0.336182 96 89 79
0.32714799 -0.14038099 -0.33520499 96 89 79
0.328857 -0.14038099 -0.33520499 96 89 79
0.330322 -0.14038099 -0.33520499 96 89 79
0.33105499 -0.139893 -0.33422899 96 89 79
0.32153299 -0.156738 -0.370361 96 89 79
0.32226601 -0.156372 -0.369385 96 89 79
0.32324201 -0.155884 -0.36840799 96 89 79
0.32324201 -0.155029 -0.366211 96 89 79
0.32299799 -0.154175 -0.36425799 96 89 79
0.323975 -0.153809 -0.36328101 96 89 79
0.32372999 -0.152954 -0.36132801 96 89 79
0.324707 -0.15258799 -0.36035201 96 89 79
0.323486 -0.151245 -0.357178 96 89 79
0.32153299 -0.149536 -0.35327101 96 89 79
0.32226601 -0.14917 -0.35229501 96 89 79
0.32226601 -0.148315 -0.35034201 96 89 79
0.322754 -0.147827 -0.349121 96 89 79
0.323486 -0.147461 -0.34814501 96 89 79
0.32324201 -0.146606 -0.34619099 96 89 79
0.323975 -0.146118 -0.34521499 96 89 79
0.32372999 -0.145264 -0.34326199 96 89 79
0.32446301 -0.144897 -0.34228501 96 89 79
0.32421899 -0.144043 -0.34008801 96 89 79
0.324707 -0.143555 -0.339111 96 89 79
0.32543901 -0.143188 -0.338135 96 89 79
0.325928 -0.1427 -0.33715799 96 89 79
0.32666001 -0.142334 -0.336182 96 89 79
0.32714799 -0.141846 -0.33520499 96 89 79
0.328857 -0.141846 -0.33520499 96 89 79
0.330322 -0.141846 -0.33520499 96 89 79
0.33105499 -0.141479 -0.33422899 96 89 79
0.320557 -0.158081 -0.369385 96 89 79
0.32153299 -0.15771499 -0.36840799 96 89 79
0.32324201 -0.15771499 -0.36840799 96 89 79
0.32324201 -0.15685999 -0.366211 96 89 79
0.32299799 -0.155884 -0.36425799 96 89 79
0.32299799 -0.155029 -0.36230499 96 89 79
0.32372999 -0.154663 -0.36132801 96 89 79
0.322754 -0.15332 -0.35839799 96 89 79
0.322754 -0.152466 -0.35620099 96 89 79
0.32153299 -0.151245 -0.35327101 96 89 79
0.32226601 -0.150757 -0.35229501 96 89 79
0.32299799 -0.150391 -0.351318 96 89 79
0.322754 -0.149536 -0.349121 96 89 79
0.323486 -0.149048 -0.34814501 96 89 79
0.32421899 -0.148682 -0.347168 96 89 79
0.323975 -0.147827 -0.34521499 96 89 79
0.324707 -0.147339 -0.34423801 96 89 79
0.32446301 -0.146484 -0.34228501 96 89 79
0.32519501 -0.145996 -0.34130901 96 89 79
0.324707 -0.145142 -0.339111 96 89 79
0.32543901 -0.144775 -0.338135 96 89 79
0.325928 -0.14428701 -0.33715799 96 89 79
0.32666001 -0.143921 -0.336182 96 89 79
0.328125 -0.143921 -0.336182 96 89 79
0.328857 -0.143433 -0.33520499 96 89 79
0.330322 -0.143433 -0.33520499 96 89 79
0.33203101 -0.143433 -0.33520499 96 89 79
0.32226601 -0.15893599 -0.367432 96 89 79
0.32324201 -0.15856899 -0.366211 96 89 79
0.32299799 -0.15771499 -0.36425799 96 89 79
0.32299799 -0.156738 -0.36230499 96 89 79
0.32299799 -0.155884 -0.36035201 96 89 79
0.322754 -0.155029 -0.35839799 96 89 79
0.322754 -0.154175 -0.35620099 96 89 79
0.32251 -0.15332 -0.35424799 96 89 79
0.32226601 -0.152466 -0.35229501 96 89 79
0.32299799 -0.151978 -0.351318 96 89 79
0.32372999 -0.151611 -0.35034201 96 89 79
0.323486 -0.150757 -0.34814501 96 89 79
0.32421899 -0.150269 -0.347168 96 89 79
0.323975 -0.149414 -0.34521499 96 89 79
0.324707 -0.148926 -0.34423801 96 89 79
0.32446301 -0.14807101 -0.34228501 96 89 79
0.32519501 -0.147705 -0.34130901 96 89 79
