# .PCD v.7 - Point Cloud Data file format
FIELDS x y z rgb imX imY
SIZE 4 4 4 4 4 4
TYPE F F F F F F
COUNT 1 1 1 1 1 1
WIDTH 837
HEIGHT 1
VIEWPOINT 0 0 0 1 0 0 0
POINTS 837
DATA ascii
0.010127253 0.722 -0.0189886 1.2229591e-38 328 255
0.01139316 0.722 -0.0189886 1.2414343e-38 329 255
0.012676599 0.72299999 -0.019014901 1.2138845e-38 330 255
0.01394426 0.72299999 -0.019014901 1.1493475e-38 331 255
0.015254001 0.72500002 -0.0190675 1.1043671e-38 332 255
0.016525166 0.72500002 -0.0190675 1.5561257e-38 333 255
-0.041182294 0.73400003 -0.020591147 1.6955341e-38 288 256
-0.039840993 0.73299998 -0.020563092 1.2898734e-38 289 256
-0.038555797 0.73299998 -0.020563092 1.2048097e-38 290 256
-0.037168913 0.73100001 -0.020506985 1.1310532e-38 291 256
-0.035838135 0.73000002 -0.020478934 1.3426709e-38 292 256
-0.034463517 0.72799999 -0.020422826 1.3334514e-38 293 256
-0.033141505 0.727 -0.020394772 1.3331277e-38 294 256
-0.031779166 0.72500002 -0.020338668 1.305469e-38 295 256
-0.030423839 0.72299999 -0.020282559 1.3144352e-38 296 256
-0.029115854 0.722 -0.020254506 1.2867405e-38 297 256
-0.027849946 0.722 -0.020254506 1.3050707e-38 298 256
-0.026510401 0.72000003 -0.020198401 1.3050707e-38 299 256
-0.025212931 0.71899998 -0.020170346 1.286739e-38 300 256
-0.02388566 0.71700001 -0.020114239 1.286739e-38 301 256
-0.02262852 0.71700001 -0.020114239 1.286739e-38 302 256
-0.021371379 0.71700001 -0.020114239 1.286739e-38 303 256
-0.020114239 0.71700001 -0.020114239 1.3051055e-38 304 256
-0.018857099 0.71700001 -0.020114239 1.2958859e-38 305 256
-0.017599959 0.71700001 -0.020114239 1.2774465e-38 306 256
-0.016342819 0.71700001 -0.020114239 1.2774465e-38 307 256
-0.01506464 0.71600002 -0.020086186 1.2589001e-38 308 256
-0.013809253 0.71600002 -0.020086186 1.2404969e-38 309 256
-0.012553867 0.71600002 -0.020086186 1.2495017e-38 310 256
-0.011266919 0.71399999 -0.020030079 1.2402821e-38 311 256
-0.01001504 0.71399999 -0.020030079 1.2495017e-38 312 256
-0.0087631596 0.71399999 -0.020030079 1.2771244e-38 313 256
-0.0075112795 0.71399999 -0.020030079 1.2865945e-38 314 256
-0.0062506334 0.713 -0.020002026 1.3326922e-38 315 256
-0.0050005065 0.713 -0.020002026 1.3144678e-38 316 256
-0.0037556398 0.71399999 -0.020030079 1.3052124e-38 317 256
-0.0025037599 0.71399999 -0.020030079 1.2959212e-38 318 256
-0.00125188 0.71399999 -0.020030079 1.2590431e-38 319 256
0 0.71399999 -0.020030079 1.2590435e-38 320 256
0.00125188 0.71399999 -0.020030079 1.2497881e-38 321 256
0.0025037599 0.71399999 -0.020030079 1.2406051e-38 322 256
0.0037556398 0.71399999 -0.020030079 1.2498607e-38 323 256
0.0050215465 0.71600002 -0.020086186 1.2314588e-38 324 256
0.0062769335 0.71600002 -0.020086186 1.2406784e-38 325 256
0.00753232 0.71600002 -0.020086186 1.2224554e-38 326 256
0.0087999795 0.71700001 -0.020114239 1.2409304e-38 327 256
0.010099201 0.72000003 -0.020198401 1.2227075e-38 328 256
0.011361601 0.72000003 -0.020198401 1.250402e-38 329 256
0.012659066 0.722 -0.020254506 1.2046649e-38 330 256
0.013924973 0.722 -0.020254506 1.2046649e-38 331 256
0.015211919 0.72299999 -0.020282559 1.0300349e-38 332 256
0.01647958 0.72299999 -0.020282559 1.3434999e-38 333 256
0.017747238 0.72299999 -0.020282559 1.6219223e-38 334 256
-0.042469237 0.73400003 -0.021878093 1.7786178e-38 287 257
-0.041182294 0.73400003 -0.021878093 1.6862783e-38 288 257
-0.039732285 0.73100001 -0.021788673 1.1976054e-38 289 257
-0.038450599 0.73100001 -0.021788673 1.1953377e-38 290 257
-0.037118066 0.73000002 -0.021758866 1.1123617e-38 291 257
-0.035838135 0.73000002 -0.021758866 1.3053967e-38 292 257
-0.034463517 0.72799999 -0.021699252 1.3146164e-38 293 257
-0.033141505 0.727 -0.021669446 1.2868506e-38 294 257
-0.031779166 0.72500002 -0.021609833 1.2683756e-38 295 257
-0.030423839 0.72299999 -0.021550218 1.2866692e-38 296 257
-0.029115854 0.722 -0.021520413 1.2866692e-38 297 257
-0.027849946 0.722 -0.021520413 1.3050351e-38 298 257
-0.026510401 0.72000003 -0.021460801 1.3050351e-38 299 257
-0.025212931 0.71899998 -0.021430992 1.2960308e-38 300 257
-0.02388566 0.71700001 -0.021371379 1.2960308e-38 301 257
-0.02262852 0.71700001 -0.021371379 1.2960304e-38 302 257
-0.021371379 0.71700001 -0.021371379 1.2960304e-38 303 257
-0.020114239 0.71700001 -0.021371379 1.3052854e-38 304 257
-0.0188308 0.71600002 -0.021341572 1.2960657e-38 305 257
-0.017575413 0.71600002 -0.021341572 1.3052124e-38 306 257
-0.016320027 0.71600002 -0.021341572 1.2775897e-38 307 257
-0.01506464 0.71600002 -0.021341572 1.277482e-38 308 257
-0.01377068 0.71399999 -0.021281958 1.2498596e-38 309 257
-0.012518799 0.71399999 -0.021281958 1.2405325e-38 310 257
-0.011251139 0.713 -0.021252153 1.2220578e-38 311 257
-0.010001013 0.713 -0.021252153 1.2495733e-38 312 257
-0.0087508867 0.713 -0.021252153 1.2495733e-38 313 257
-0.0075007593 0.713 -0.021252153 1.2774115e-38 314 257
-0.0062330998 0.71100003 -0.021192541 1.3143256e-38 315 257
-0.0049864799 0.71100003 -0.021192541 1.2961733e-38 316 257
-0.0037503797 0.713 -0.021252153 1.2869178e-38 317 257
-0.0025002533 0.713 -0.021252153 1.3051411e-38 318 257
-0.0012501266 0.713 -0.021252153 1.2866661e-38 319 257
0 0.713 -0.021252153 1.2773748e-38 320 257
0.0012501266 0.713 -0.021252153 1.2681552e-38 321 257
0.0025002533 0.713 -0.021252153 1.2406051e-38 322 257
0.0037503797 0.713 -0.021252153 1.2406051e-38 323 257
0.0050075199 0.71399999 -0.021281958 1.213019e-38 324 257
0.0062593995 0.71399999 -0.021281958 1.2222386e-38 325 257
0.0075112795 0.71399999 -0.021281958 1.2131995e-38 326 257
0.0087877065 0.71600002 -0.021341572 1.2224191e-38 327 257
0.010099201 0.72000003 -0.021460801 1.213344e-38 328 257
0.011361601 0.72000003 -0.021460801 1.2409668e-38 329 257
0.012659066 0.722 -0.021520413 1.2136324e-38 330 257
0.013924973 0.722 -0.021520413 1.2413271e-38 331 257
0.015211919 0.72299999 -0.021550218 1.0387499e-38 332 257
0.01647958 0.72299999 -0.021550218 1.1125065e-38 333 257
0.017747238 0.72299999 -0.021550218 1.4834845e-38 334 257
0.0190675 0.72500002 -0.021609833 1.6955344e-38 335 257
-0.042411376 0.73299998 -0.023133477 1.7786178e-38 287 258
-0.041126184 0.73299998 -0.023133477 1.6678389e-38 288 258
-0.039732285 0.73100001 -0.02307036 1.1330682e-38 289 258
-0.038450599 0.73100001 -0.02307036 1.2134526e-38 290 258
-0.037118066 0.73000002 -0.023038799 1.1212928e-38 291 258
-0.035838135 0.73000002 -0.023038799 1.2684093e-38 292 258
-0.034463517 0.72799999 -0.022975679 1.2684093e-38 293 258
-0.033141505 0.727 -0.022944121 1.2681942e-38 294 258
-0.031779166 0.72500002 -0.022880999 1.2589746e-38 295 258
-0.030423839 0.72299999 -0.02281788 1.2864888e-38 296 258
-0.029115854 0.722 -0.022786319 1.2864888e-38 297 258
-0.027849946 0.722 -0.022786319 1.2865957e-38 298 258
-0.026510401 0.72000003 -0.022723202 1.2958512e-38 299 258
-0.025212931 0.71899998 -0.022691639 1.2777715e-38 300 258
-0.02388566 0.71700001 -0.02262852 1.2777715e-38 301 258
-0.02262852 0.71700001 -0.02262852 1.2870632e-38 302 258
-0.021371379 0.71700001 -0.02262852 1.2962828e-38 303 258
-0.020114239 0.71700001 -0.02262852 1.2872427e-38 304 258
-0.0188308 0.71600002 -0.022596961 1.2964624e-38 305 258
-0.017575413 0.71600002 -0.022596961 1.2872424e-38 306 258
-0.016320027 0.71600002 -0.022596961 1.2688033e-38 307 258
-0.015022559 0.71399999 -0.022533838 1.2687314e-38 308 258
-0.01377068 0.71399999 -0.022533838 1.231853e-38 309 258
-0.012501267 0.713 -0.022502279 1.2683001e-38 310 258
-0.011251139 0.713 -0.022502279 1.2498251e-38 311 258
-0.0099729598 0.71100003 -0.022439159 1.231314e-38 312 258
-0.0087263398 0.71100003 -0.022439159 1.231314e-38 313 258
-0.0074797203 0.71100003 -0.022439159 1.2680477e-38 314 258
-0.0062330998 0.71100003 -0.022439159 1.3141455e-38 315 258
-0.0049864799 0.71100003 -0.022439159 1.3052127e-38 316 258
-0.0037398601 0.71100003 -0.022439159 1.2868096e-38 317 258
-0.0024932399 0.71100003 -0.022439159 1.2958856e-38 318 258
-0.0012501266 0.713 -0.022502279 1.2774465e-38 319 258
0 0.713 -0.022502279 1.259008e-38 320 258
0.0012501266 0.713 -0.022502279 1.2405688e-38 321 258
0.0025002533 0.713 -0.022502279 1.2405335e-38 322 258
0.0037503797 0.713 -0.022502279 1.2405335e-38 323 258
0.0050075199 0.71399999 -0.022533838 1.213019e-38 324 258
0.0062593995 0.71399999 -0.022533838 1.213019e-38 325 258
0.0075112795 0.71399999 -0.022533838 1.2222386e-38 326 258
0.0087877065 0.71600002 -0.022596961 1.2314942e-38 327 258
0.01005712 0.71700001 -0.02262852 1.2132714e-38 328 258
0.01134582 0.71899998 -0.022691639 1.222491e-38 329 258
0.012624 0.72000003 -0.022723202 1.1951567e-38 330 258
0.013924973 0.722 -0.022786319 1.2135958e-38 331 258
0.015190879 0.722 -0.022786319 1.1397687e-38 332 258
0.016456785 0.722 -0.022786319 1.0752317e-38 333 258
0.017747238 0.72299999 -0.02281788 1.2986611e-38 334 258
0.019014901 0.72299999 -0.02281788 1.6490405e-38 335 258
0.020282559 0.72299999 -0.02281788 1.7140093e-38 336 258
-0.042411376 0.73299998 -0.024418673 1.7969491e-38 287 259
-0.041126184 0.73299998 -0.024418673 1.6493275e-38 288 259
-0.039677933 0.73000002 -0.024318734 1.1053374e-38 289 259
-0.038398001 0.73000002 -0.024318734 1.2224554e-38 290 259
-0.037016369 0.72799999 -0.024252106 1.1579184e-38 291 259
-0.035739943 0.72799999 -0.024252106 1.249898e-38 292 259
-0.034463517 0.72799999 -0.024252106 1.2314588e-38 293 259
-0.033050332 0.72500002 -0.024152167 1.2404279e-38 294 259
-0.031691495 0.72299999 -0.024085538 1.2404279e-38 295 259
-0.030423839 0.72299999 -0.024085538 1.2404632e-38 296 259
-0.029115854 0.722 -0.024052227 1.2589024e-38 297 259
-0.027772799 0.72000003 -0.0239856 1.2406784e-38 298 259
-0.026510401 0.72000003 -0.0239856 1.2683011e-38 299 259
-0.025212931 0.71899998 -0.023952285 1.2409657e-38 300 259
-0.02388566 0.71700001 -0.02388566 1.2870276e-38 301 259
-0.022596961 0.71600002 -0.023852346 1.2689835e-38 302 259
-0.021341572 0.71600002 -0.023852346 1.3058258e-38 303 259
-0.020114239 0.71700001 -0.02388566 1.3060046e-38 304 259
-0.0188308 0.71600002 -0.023852346 1.3152243e-38 305 259
-0.017575413 0.71600002 -0.023852346 1.3245507e-38 306 259
-0.016320027 0.71600002 -0.023852346 1.3061116e-38 307 259
-0.015022559 0.71399999 -0.02378572 1.3243002e-38 308 259
-0.013751393 0.713 -0.023752406 1.2782384e-38 309 259
-0.012501267 0.713 -0.023752406 1.2778078e-38 310 259
-0.011251139 0.713 -0.023752406 1.2317458e-38 311 259
-0.0099729598 0.71100003 -0.023685781 1.2590084e-38 312 259
-0.0087263398 0.71100003 -0.023685781 1.2313137e-38 313 259
-0.0074797203 0.71100003 -0.023685781 1.2497534e-38 314 259
-0.0062330998 0.71100003 -0.023685781 1.2497534e-38 315 259
-0.0049864799 0.71100003 -0.023685781 1.2682998e-38 316 259
-0.0037398601 0.71100003 -0.023685781 1.2682998e-38 317 259
-0.0024932399 0.71100003 -0.023685781 1.2499683e-38 318 259
-0.00124662 0.71100003 -0.023685781 1.2407488e-38 319 259
0 0.713 -0.023752406 1.2498607e-38 320 259
0.00124662 0.71100003 -0.023685781 1.2406051e-38 321 259
0.0024932399 0.71100003 -0.023685781 1.2222742e-38 322 259
0.0037398601 0.71100003 -0.023685781 1.2222742e-38 323 259
0.0050005065 0.713 -0.023752406 1.213019e-38 324 259
0.0062506334 0.713 -0.023752406 1.213019e-38 325 259
0.0075007593 0.713 -0.023752406 1.2039794e-38 326 259
0.0087631596 0.71399999 -0.02378572 1.1947597e-38 327 259
0.010043093 0.71600002 -0.023852346 1.2131992e-38 328 259
0.01131426 0.71700001 -0.02388566 1.2224188e-38 329 259
0.012606465 0.71899998 -0.023952285 1.213344e-38 330 259
0.0138864 0.72000003 -0.0239856 1.213344e-38 331 259
0.015190879 0.722 -0.024052227 1.167355e-38 332 259
0.016456785 0.722 -0.024052227 1.1028181e-38 333 259
0.017722692 0.722 -0.024052227 1.1780865e-38 334 259
0.0189886 0.722 -0.024052227 1.6114059e-38 335 259
0.020254506 0.722 -0.024052227 1.6955695e-38 336 259
-0.041126184 0.73299998 -0.025703866 1.6584391e-38 288 260
-0.039677933 0.73000002 -0.025598666 1.1052655e-38 289 260
-0.038292799 0.72799999 -0.025528532 1.2594418e-38 290 260
-0.037016369 0.72799999 -0.025528532 1.1764299e-38 291 260
-0.035739943 0.72799999 -0.025528532 1.2407856e-38 292 260
-0.03441618 0.727 -0.025493465 1.1854682e-38 293 260
-0.033050332 0.72500002 -0.025423333 1.2404616e-38 294 260
-0.031691495 0.72299999 -0.025353199 1.2312421e-38 295 260
-0.030381758 0.722 -0.025318133 1.2495733e-38 296 260
-0.029115854 0.722 -0.025318133 1.2587929e-38 297 260
-0.027772799 0.72000003 -0.025248 1.2404619e-38 298 260
-0.026510401 0.72000003 -0.025248 1.258865e-38 299 260
-0.025212931 0.71899998 -0.025212931 1.2500055e-38 300 260
-0.02388566 0.71700001 -0.0251428 1.2960674e-38 301 260
-0.022596961 0.71600002 -0.025107734 1.2689485e-38 302 260
-0.021341572 0.71600002 -0.025107734 1.3242659e-38 303 260
-0.020086186 0.71600002 -0.025107734 1.3154426e-38 304 260
-0.0188308 0.71600002 -0.025107734 1.3707598e-38 305 260
-0.017526319 0.71399999 -0.025037598 1.343425e-38 306 260
-0.016274439 0.71399999 -0.025037598 1.3711195e-38 307 260
-0.015022559 0.71399999 -0.025037598 1.3620446e-38 308 260
-0.013751393 0.713 -0.025002534 1.3251303e-38 309 260
-0.012501267 0.713 -0.025002534 1.3704726e-38 310 260
-0.011251139 0.713 -0.025002534 1.2690932e-38 311 260
-0.0099729598 0.71100003 -0.024932399 1.2870276e-38 312 260
-0.0087263398 0.71100003 -0.024932399 1.1856484e-38 313 260
-0.0074797203 0.71100003 -0.024932399 1.2587929e-38 314 260
-0.0062330998 0.71100003 -0.024932399 1.2680124e-38 315 260
-0.0049864799 0.71100003 -0.024932399 1.2771594e-38 316 260
-0.0037398601 0.71100003 -0.024932399 1.286379e-38 317 260
-0.0024932399 0.71100003 -0.024932399 1.2773745e-38 318 260
-0.00124662 0.71100003 -0.024932399 1.2681549e-38 319 260
0 0.71100003 -0.024932399 1.240676e-38 320 260
0.00124662 0.71100003 -0.024932399 1.2222372e-38 321 260
0.0024932399 0.71100003 -0.024932399 1.2406051e-38 322 260
0.0037398601 0.71100003 -0.024932399 1.2406051e-38 323 260
0.0050005065 0.713 -0.025002534 1.2130543e-38 324 260
0.0062506334 0.713 -0.025002534 1.2130543e-38 325 260
0.0075007593 0.713 -0.025002534 1.213018e-38 326 260
0.0087508867 0.713 -0.025002534 1.2222376e-38 327 260
0.01001504 0.71399999 -0.025037598 1.2223459e-38 328 260
0.01129848 0.71600002 -0.025107734 1.2315655e-38 329 260
0.0125714 0.71700001 -0.0251428 1.2132708e-38 330 260
0.013867113 0.71899998 -0.025212931 1.2225263e-38 331 260
0.0151488 0.72000003 -0.025248 1.1858651e-38 332 260
0.016456785 0.722 -0.025318133 1.1305477e-38 333 260
0.017722692 0.722 -0.025318133 1.0851353e-38 334 260
0.0189886 0.722 -0.025318133 1.5645165e-38 335 260
0.020254506 0.722 -0.025318133 1.6493275e-38 336 260
-0.040957868 0.73000002 -0.026878599 1.6216685e-38 288 261
-0.039677933 0.73000002 -0.026878599 1.0961534e-38 289 261
-0.038292799 0.72799999 -0.026804959 1.2687332e-38 290 261
-0.036965527 0.727 -0.026768139 1.1673182e-38 291 261
-0.035690852 0.727 -0.026768139 1.2589728e-38 292 261
-0.03441618 0.727 -0.026768139 1.2405335e-38 293 261
-0.032959159 0.72299999 -0.026620859 1.2496089e-38 294 261
-0.031647664 0.722 -0.026584039 1.2496089e-38 295 261
-0.030381758 0.722 -0.026584039 1.2312423e-38 296 261
-0.029115854 0.722 -0.026584039 1.2219869e-38 297 261
-0.027772799 0.72000003 -0.026510401 1.2220594e-38 298 261
-0.02647358 0.71899998 -0.02647358 1.2404985e-38 299 261
-0.025212931 0.71899998 -0.02647358 1.2131286e-38 300 261
-0.02388566 0.71700001 -0.02639994 1.268446e-38 301 261
-0.022596961 0.71600002 -0.026363119 1.2597305e-38 302 261
-0.021341572 0.71600002 -0.026363119 1.3519261e-38 303 261
-0.020086186 0.71600002 -0.026363119 1.3155871e-38 304 261
-0.0188308 0.71600002 -0.026363119 1.380124e-38 305 261
-0.017526319 0.71399999 -0.026289478 1.3621515e-38 306 261
-0.016274439 0.71399999 -0.026289478 1.3805906e-38 307 261
-0.015001519 0.713 -0.026252659 1.4173983e-38 308 261
-0.013751393 0.713 -0.026252659 1.4173983e-38 309 261
-0.012501267 0.713 -0.026252659 1.407855e-38 310 261
-0.011251139 0.713 -0.026252659 1.3156592e-38 311 261
-0.0099729598 0.71100003 -0.026179021 1.3151539e-38 312 261
-0.0087263398 0.71100003 -0.026179021 1.1768605e-38 313 261
-0.0074797203 0.71100003 -0.026179021 1.259045e-38 314 261
-0.0062330998 0.71100003 -0.026179021 1.2129471e-38 315 261
-0.0049864799 0.71100003 -0.026179021 1.2313142e-38 316 261
-0.0037398601 0.71100003 -0.026179021 1.2313142e-38 317 261
-0.0024932399 0.71100003 -0.026179021 1.2129824e-38 318 261
-0.00124662 0.71100003 -0.026179021 1.222202e-38 319 261
0 0.71100003 -0.026179021 1.222202e-38 320 261
0.00124662 0.71100003 -0.026179021 1.222202e-38 321 261
0.0024932399 0.71100003 -0.026179021 1.2130546e-38 322 261
0.0037398601 0.71100003 -0.026179021 1.2130546e-38 323 261
0.0050005065 0.713 -0.026252659 1.2130543e-38 324 261
0.0062506334 0.713 -0.026252659 1.2130543e-38 325 261
0.0075007593 0.713 -0.026252659 1.2130543e-38 326 261
0.0087508867 0.713 -0.026252659 1.2130543e-38 327 261
0.01001504 0.71399999 -0.026289478 1.1947597e-38 328 261
0.01129848 0.71600002 -0.026363119 1.2039794e-38 329 261
0.0125714 0.71700001 -0.02639994 1.2132711e-38 330 261
0.013828539 0.71700001 -0.02639994 1.2040516e-38 331 261
0.01512776 0.71899998 -0.02647358 1.1673182e-38 332 261
0.0164112 0.72000003 -0.026510401 1.1857213e-38 333 261
0.017722692 0.722 -0.026584039 1.0938505e-38 334 261
0.0189886 0.722 -0.026584039 1.4534136e-38 335 261
-0.040957868 0.73000002 -0.028158534 1.6032294e-38 288 262
-0.039677933 0.73000002 -0.028158534 1.105373e-38 289 262
-0.038292799 0.72799999 -0.028081384 1.2780248e-38 290 262
-0.036965527 0.727 -0.028042812 1.1673901e-38 291 262
-0.035690852 0.727 -0.028042812 1.2682998e-38 292 262
-0.03441618 0.727 -0.028042812 1.222202e-38 293 262
-0.032959159 0.72299999 -0.02788852 1.2312774e-38 294 262
-0.031647664 0.722 -0.027849946 1.2220578e-38 295 262
-0.030381758 0.722 -0.027849946 1.2310986e-38 296 262
-0.029115854 0.722 -0.027849946 1.2126953e-38 297 262
-0.027772799 0.72000003 -0.027772799 1.2310991e-38 298 262
-0.02647358 0.71899998 -0.027734226 1.2403187e-38 299 262
-0.025212931 0.71899998 -0.027734226 1.2129843e-38 300 262
-0.02388566 0.71700001 -0.027657079 1.2406431e-38 301 262
-0.022596961 0.71600002 -0.027618507 1.2411118e-38 302 262
-0.021341572 0.71600002 -0.027618507 1.3424912e-38 303 262
-0.020086186 0.71600002 -0.027618507 1.3429233e-38 304 262
-0.0188308 0.71600002 -0.027618507 1.4258994e-38 305 262
-0.017526319 0.71399999 -0.02754136 1.352611e-38 306 262
-0.016274439 0.71399999 -0.02754136 1.3618665e-38 307 262
-0.015001519 0.713 -0.027502786 1.3803776e-38 308 262
-0.013751393 0.713 -0.027502786 1.4080363e-38 309 262
-0.0124662 0.71100003 -0.027425639 1.3805206e-38 310 262
-0.01121958 0.71100003 -0.027425639 1.3159836e-38 311 262
-0.0099729598 0.71100003 -0.027425639 1.3337021e-38 312 262
-0.0087263398 0.71100003 -0.027425639 1.1861532e-38 313 262
-0.0074797203 0.71100003 -0.027425639 1.2683367e-38 314 262
-0.0062330998 0.71100003 -0.027425639 1.2222389e-38 315 262
-0.0049794666 0.70999998 -0.027387066 1.2220225e-38 316 262
-0.0037345996 0.70999998 -0.027387066 1.2220225e-38 317 262
-0.0024897333 0.70999998 -0.027387066 1.2220225e-38 318 262
-0.0012448666 0.70999998 -0.027387066 1.2220225e-38 319 262
0 0.71100003 -0.027425639 1.2128392e-38 320 262
0.00124662 0.71100003 -0.027425639 1.2128392e-38 321 262
0.0024932399 0.71100003 -0.027425639 1.2037276e-38 322 262
0.0037398601 0.71100003 -0.027425639 1.2129471e-38 323 262
0.0050005065 0.713 -0.027502786 1.2038351e-38 324 262
0.0062506334 0.713 -0.027502786 1.2038351e-38 325 262
0.0075007593 0.713 -0.027502786 1.2038351e-38 326 262
0.0087508867 0.713 -0.027502786 1.2130546e-38 327 262
0.01001504 0.71399999 -0.02754136 1.1947234e-38 328 262
0.01129848 0.71600002 -0.027618507 1.203943e-38 329 262
0.012553867 0.71600002 -0.027618507 1.204015e-38 330 262
0.013828539 0.71700001 -0.027657079 1.1947953e-38 331 262
0.015085679 0.71700001 -0.027657079 1.1763578e-38 332 262
0.016388407 0.71899998 -0.027734226 1.1856134e-38 333 262
0.017722692 0.722 -0.027849946 1.0935985e-38 334 262
0.0189886 0.722 -0.027849946 1.3886604e-38 335 262
-0.041013971 0.73100001 -0.029478792 1.6400354e-38 288 263
-0.039732285 0.73100001 -0.029478792 1.1513985e-38 289 263
-0.038398001 0.73000002 -0.029438468 1.3057191e-38 290 263
-0.037016369 0.72799999 -0.029357811 1.1950844e-38 291 263
-0.035739943 0.72799999 -0.029357811 1.2775913e-38 292 263
-0.034321502 0.72500002 -0.029236834 1.2222739e-38 293 263
-0.032959159 0.72299999 -0.029156178 1.2220222e-38 294 263
-0.031647664 0.722 -0.029115854 1.2035831e-38 295 263
-0.030381758 0.722 -0.029115854 1.2126953e-38 296 263
-0.029115854 0.722 -0.029115854 1.2034758e-38 297 263
-0.027772799 0.72000003 -0.029035201 1.2035123e-38 298 263
-0.02647358 0.71899998 -0.028994869 1.2035123e-38 299 263
-0.025212931 0.71899998 -0.028994869 1.1852178e-38 300 263
-0.02388566 0.71700001 -0.028914221 1.2221319e-38 301 263
-0.022596961 0.71600002 -0.028873893 1.2224206e-38 302 263
-0.021341572 0.71600002 -0.028873893 1.2961771e-38 303 263
-0.020086186 0.71600002 -0.028873893 1.2966457e-38 304 263
-0.0188308 0.71600002 -0.028873893 1.3611827e-38 305 263
-0.017526319 0.71399999 -0.028793238 1.3245212e-38 306 263
-0.016274439 0.71399999 -0.028793238 1.3429962e-38 307 263
-0.015001519 0.713 -0.028752912 1.3615795e-38 308 263
-0.013751393 0.713 -0.028752912 1.3707991e-38 309 263
-0.0124662 0.71100003 -0.028672259 1.3523224e-38 310 263
-0.01121958 0.71100003 -0.028672259 1.2877854e-38 311 263
-0.0099729598 0.71100003 -0.028672259 1.3150836e-38 312 263
-0.0087263398 0.71100003 -0.028672259 1.2321074e-38 313 263
-0.0074797203 0.71100003 -0.028672259 1.2591897e-38 314 263
-0.0062330998 0.71100003 -0.028672259 1.1946528e-38 315 263
-0.0049794666 0.70999998 -0.028631933 1.2128392e-38 316 263
-0.0037345996 0.70999998 -0.028631933 1.1944361e-38 317 263
-0.0024897333 0.70999998 -0.028631933 1.2128029e-38 318 263
-0.0012448666 0.70999998 -0.028631933 1.2035474e-38 319 263
0 0.70999998 -0.028631933 1.2035476e-38 320 263
0.00124662 0.71100003 -0.028672259 1.2035476e-38 321 263
0.0024932399 0.71100003 -0.028672259 1.1852529e-38 322 263
0.0037398601 0.71100003 -0.028672259 1.1945083e-38 323 263
0.0049864799 0.71100003 -0.028672259 1.1945799e-38 324 263
0.0062506334 0.713 -0.028752912 1.1945799e-38 325 263
0.0075007593 0.713 -0.028752912 1.185468e-38 326 263
0.0087508867 0.713 -0.028752912 1.185468e-38 327 263
0.010001013 0.713 -0.028752912 1.185468e-38 328 263
0.011266919 0.71399999 -0.028793238 1.1947234e-38 329 263
0.012553867 0.71600002 -0.028873893 1.1855398e-38 330 263
0.013809253 0.71600002 -0.028873893 1.1671367e-38 331 263
0.015085679 0.71700001 -0.028914221 1.1578465e-38 332 263
0.016388407 0.71899998 -0.028994869 1.1578465e-38 333 263
0.017649053 0.71899998 -0.028994869 1.1209328e-38 334 263
0.018909698 0.71899998 -0.028994869 1.3790806e-38 335 263
-0.041126184 0.73299998 -0.030844638 1.6401073e-38 288 264
-0.039840993 0.73299998 -0.030844638 1.1883487e-38 289 264
-0.038555797 0.73299998 -0.030844638 1.3058988e-38 290 264
-0.037016369 0.72799999 -0.030634239 1.1952639e-38 291 264
-0.035690852 0.727 -0.030592158 1.2960657e-38 292 264
-0.034321502 0.72500002 -0.030508002 1.2315288e-38 293 264
-0.032959159 0.72299999 -0.030423839 1.2405325e-38 294 264
-0.031691495 0.72299999 -0.030423839 1.2128384e-38 295 264
-0.030381758 0.722 -0.030381758 1.2127309e-38 296 264
-0.029115854 0.722 -0.030381758 1.2034755e-38 297 264
-0.027772799 0.72000003 -0.0302976 1.1943284e-38 298 264
-0.026510401 0.72000003 -0.0302976 1.1943284e-38 299 264
-0.025212931 0.71899998 -0.030255521 1.1759618e-38 300 264
-0.02388566 0.71700001 -0.030171359 1.2128042e-38 301 264
-0.022596961 0.71600002 -0.03012928 1.203802e-38 302 264
-0.021341572 0.71600002 -0.03012928 1.2591194e-38 303 264
-0.020086186 0.71600002 -0.03012928 1.2410768e-38 304 264
-0.0188308 0.71600002 -0.03012928 1.2963942e-38 305 264
-0.017526319 0.71399999 -0.030045118 1.2873558e-38 306 264
-0.016274439 0.71399999 -0.030045118 1.3150145e-38 307 264
-0.015001519 0.713 -0.030003037 1.3059397e-38 308 264
-0.013751393 0.713 -0.030003037 1.3059397e-38 309 264
-0.0124662 0.71100003 -0.029918881 1.3149779e-38 310 264
-0.01121958 0.71100003 -0.029918881 1.2688441e-38 311 264
-0.0099729598 0.71100003 -0.029918881 1.2779898e-38 312 264
-0.0087263398 0.71100003 -0.029918881 1.2411116e-38 313 264
-0.0074797203 0.71100003 -0.029918881 1.250042e-38 314 264
-0.0062330998 0.71100003 -0.029918881 1.1855051e-38 315 264
-0.0049794666 0.70999998 -0.029876797 1.194508e-38 316 264
-0.0037345996 0.70999998 -0.029876797 1.1852884e-38 317 264
-0.0024897333 0.70999998 -0.029876797 1.1852161e-38 318 264
-0.0012448666 0.70999998 -0.029876797 1.1852161e-38 319 264
0 0.70999998 -0.029876797 1.1759969e-38 320 264
0.00124662 0.71100003 -0.029918881 1.1852164e-38 321 264
0.0024932399 0.71100003 -0.029918881 1.1760334e-38 322 264
0.0037398601 0.71100003 -0.029918881 1.1944727e-38 323 264
0.0049864799 0.71100003 -0.029918881 1.1669935e-38 324 264
0.0062330998 0.71100003 -0.029918881 1.1762131e-38 325 264
0.0074797203 0.71100003 -0.029918881 1.1579174e-38 326 264
0.0087508867 0.713 -0.030003037 1.1579174e-38 327 264
0.010001013 0.713 -0.030003037 1.1762131e-38 328 264
0.011266919 0.71399999 -0.030045118 1.1762131e-38 329 264
0.012518799 0.71399999 -0.030045118 1.1579537e-38 330 264
0.013809253 0.71600002 -0.03012928 1.1487342e-38 331 264
0.015085679 0.71700001 -0.030171359 1.1394074e-38 332 264
0.016388407 0.71899998 -0.030255521 1.1578465e-38 333 264
0.017649053 0.71899998 -0.030255521 1.1210765e-38 334 264
0.018909698 0.71899998 -0.030255521 1.34231e-38 335 264
-0.041182294 0.73400003 -0.032173667 1.6861328e-38 288 265
-0.039895348 0.73400003 -0.032173667 1.2896916e-38 289 265
-0.038555797 0.73299998 -0.032129832 1.3336649e-38 290 265
-0.037016369 0.72799999 -0.031910665 1.1953715e-38 291 265
-0.035690852 0.727 -0.03186683 1.2779863e-38 292 265
-0.034321502 0.72500002 -0.031779166 1.2042298e-38 293 265
-0.032959159 0.72299999 -0.031691495 1.2406404e-38 294 265
-0.031647664 0.722 -0.031647664 1.1853236e-38 295 265
-0.030381758 0.722 -0.031647664 1.2128027e-38 296 265
-0.029115854 0.722 -0.031647664 1.1943637e-38 297 265
-0.027772799 0.72000003 -0.03156 1.1942562e-38 298 265
-0.026510401 0.72000003 -0.03156 1.1942562e-38 299 265
-0.025212931 0.71899998 -0.031516165 1.1758894e-38 300 265
-0.02388566 0.71700001 -0.031428497 1.2127676e-38 301 265
-0.02262852 0.71700001 -0.031428497 1.2036925e-38 302 265
-0.021371379 0.71700001 -0.031428497 1.2221317e-38 303 265
-0.020086186 0.71600002 -0.031384666 1.2407153e-38 304 265
-0.0188308 0.71600002 -0.031384666 1.3052522e-38 305 265
-0.017526319 0.71399999 -0.031296998 1.2961418e-38 306 265
-0.016274439 0.71399999 -0.031296998 1.3146169e-38 307 265
-0.015001519 0.713 -0.031253166 1.2870671e-38 308 265
-0.013751393 0.713 -0.031253166 1.2778476e-38 309 265
-0.012501267 0.713 -0.031253166 1.2868869e-38 310 265
-0.01121958 0.71100003 -0.031165501 1.2776674e-38 311 265
-0.0099729598 0.71100003 -0.031165501 1.2684828e-38 312 265
-0.0087263398 0.71100003 -0.031165501 1.2500797e-38 313 265
-0.0074797203 0.71100003 -0.031165501 1.2132361e-38 314 265
-0.0062330998 0.71100003 -0.031165501 1.1671383e-38 315 265
-0.0049864799 0.71100003 -0.031165501 1.194508e-38 316 265
-0.0037398601 0.71100003 -0.031165501 1.1852884e-38 317 265
-0.0024897333 0.70999998 -0.031121666 1.1943637e-38 318 265
-0.0012448666 0.70999998 -0.031121666 1.1759607e-38 319 265
0 0.70999998 -0.031121666 1.1667054e-38 320 265
0.00124662 0.71100003 -0.031165501 1.1943637e-38 321 265
0.0024932399 0.71100003 -0.031165501 1.1760687e-38 322 265
0.0037398601 0.71100003 -0.031165501 1.1852884e-38 323 265
0.0049864799 0.71100003 -0.031165501 1.1669572e-38 324 265
0.0062330998 0.71100003 -0.031165501 1.1669572e-38 325 265
0.0074797203 0.71100003 -0.031165501 1.1670288e-38 326 265
0.0087508867 0.713 -0.031253166 1.1670288e-38 327 265
0.010001013 0.713 -0.031253166 1.1761768e-38 328 265
0.011266919 0.71399999 -0.031296998 1.1761768e-38 329 265
0.012518799 0.71399999 -0.031296998 1.1577737e-38 330 265
0.013809253 0.71600002 -0.031384666 1.1577737e-38 331 265
0.01506464 0.71600002 -0.031384666 1.1301511e-38 332 265
0.016342819 0.71700001 -0.031428497 1.1762131e-38 333 265
0.017599959 0.71700001 -0.031428497 1.139479e-38 334 265
0.018909698 0.71899998 -0.031516165 1.3146867e-38 335 265
-0.039840993 0.73299998 -0.033415023 1.3727756e-38 289 266
-0.037270606 0.73299998 -0.033415023 1.1771484e-38 291 266
-0.035592668 0.72500002 -0.033050332 1.3146478e-38 292 266
-0.034321502 0.72500002 -0.033050332 1.2501108e-38 293 266
-0.032959159 0.72299999 -0.032959159 1.2498596e-38 294 266
-0.031647664 0.722 -0.032913569 1.2222013e-38 295 266
-0.030381758 0.722 -0.032913569 1.2311696e-38 296 266
-0.029115854 0.722 -0.032913569 1.2035472e-38 297 266
-0.027772799 0.72000003 -0.0328224 1.2126232e-38 298 266
-0.026510401 0.72000003 -0.0328224 1.2126232e-38 299 266
-0.025248 0.72000003 -0.0328224 1.1942565e-38 300 266
-0.023952285 0.71899998 -0.032776814 1.203476e-38 301 266
-0.02262852 0.71700001 -0.032685637 1.2128039e-38 302 266
-0.021371379 0.71700001 -0.032685637 1.2404985e-38 303 266
-0.020114239 0.71700001 -0.032685637 1.203802e-38 304 266
-0.0188308 0.71600002 -0.032640055 1.2314607e-38 305 266
-0.017526319 0.71399999 -0.032548878 1.2315345e-38 306 266
-0.016274439 0.71399999 -0.032548878 1.2500097e-38 307 266
-0.015022559 0.71399999 -0.032548878 1.2408264e-38 308 266
-0.013751393 0.713 -0.032503292 1.2316068e-38 309 266
-0.012501267 0.713 -0.032503292 1.22235e-38 310 266
-0.01121958 0.71100003 -0.032412119 1.22235e-38 311 266
-0.0099729598 0.71100003 -0.032412119 1.213309e-38 312 266
-0.0087263398 0.71100003 -0.032412119 1.2040894e-38 313 266
-0.0074797203 0.71100003 -0.032412119 1.2223112e-38 314 266
-0.0062330998 0.71100003 -0.032412119 1.1946525e-38 315 266
-0.0049864799 0.71100003 -0.032412119 1.1946152e-38 316 266
-0.0037398601 0.71100003 -0.032412119 1.1577371e-38 317 266
-0.0024932399 0.71100003 -0.032412119 1.1759607e-38 318 266
-0.00124662 0.71100003 -0.032412119 1.1759607e-38 319 266
0 0.71100003 -0.032412119 1.1667772e-38 320 266
0.00124662 0.71100003 -0.032412119 1.1667772e-38 321 266
0.0024932399 0.71100003 -0.032412119 1.15763e-38 322 266
0.0037398601 0.71100003 -0.032412119 1.1760332e-38 323 266
0.0049864799 0.71100003 -0.032412119 1.139371e-38 324 266
0.0062330998 0.71100003 -0.032412119 1.139371e-38 325 266
0.0074797203 0.71100003 -0.032412119 1.1393704e-38 326 266
0.0087508867 0.713 -0.032503292 1.1577737e-38 327 266
0.010001013 0.713 -0.032503292 1.1211112e-38 328 266
0.011266919 0.71399999 -0.032548878 1.1118915e-38 329 266
0.012518799 0.71399999 -0.032548878 1.1301511e-38 330 266
0.013809253 0.71600002 -0.032640055 1.1301511e-38 331 266
0.01506464 0.71600002 -0.032640055 1.1210759e-38 332 266
0.016342819 0.71700001 -0.032685637 1.157954e-38 333 266
0.017599959 0.71700001 -0.032685637 1.1396941e-38 334 266
0.018909698 0.71899998 -0.032776814 1.268768e-38 335 266
0.020198401 0.72000003 -0.0328224 1.3902414e-38 336 266
-0.037270606 0.73299998 -0.034700219 1.1406302e-38 291 267
-0.035985414 0.73299998 -0.034700219 1.296498e-38 292 267
-0.034321502 0.72500002 -0.034321502 1.2134859e-38 293 267
-0.032959159 0.72299999 -0.03422682 1.2499683e-38 294 267
-0.031691495 0.72299999 -0.03422682 1.2223095e-38 295 267
-0.030381758 0.722 -0.034179479 1.213018e-38 296 267
-0.029115854 0.722 -0.034179479 1.194543e-38 297 267
-0.027772799 0.72000003 -0.034084801 1.2035831e-38 298 267
-0.026510401 0.72000003 -0.034084801 1.1943637e-38 299 267
-0.025248 0.72000003 -0.034084801 1.1943637e-38 300 267
-0.023952285 0.71899998 -0.03403746 1.2035831e-38 301 267
-0.02262852 0.71700001 -0.033942781 1.1944358e-38 302 267
-0.021371379 0.71700001 -0.033942781 1.2128748e-38 303 267
-0.020114239 0.71700001 -0.033942781 1.2219872e-38 304 267
-0.0188308 0.71600002 -0.03389544 1.2404263e-38 305 267
-0.017575413 0.71600002 -0.03389544 1.2404632e-38 306 267
-0.016274439 0.71399999 -0.033800758 1.2589024e-38 307 267
-0.015022559 0.71399999 -0.033800758 1.2405351e-38 308 267
-0.013751393 0.713 -0.033753417 1.2497548e-38 309 267
-0.012501267 0.713 -0.033753417 1.2315307e-38 310 267
-0.011251139 0.713 -0.033753417 1.2407503e-38 311 267
-0.0099729598 0.71100003 -0.033658739 1.2132714e-38 312 267
-0.0087263398 0.71100003 -0.033658739 1.2132714e-38 313 267
-0.0074797203 0.71100003 -0.033658739 1.2131992e-38 314 267
-0.0062330998 0.71100003 -0.033658739 1.1855404e-38 315 267
-0.0049864799 0.71100003 -0.033658739 1.1945077e-38 316 267
-0.0037398601 0.71100003 -0.033658739 1.1576654e-38 317 267
-0.0024932399 0.71100003 -0.033658739 1.1850725e-38 318 267
-0.00124662 0.71100003 -0.033658739 1.1758531e-38 319 267
0 0.71100003 -0.033658739 1.1667413e-38 320 267
0.00124662 0.71100003 -0.033658739 1.1667413e-38 321 267
0.0024932399 0.71100003 -0.033658739 1.1575577e-38 322 267
0.0037398601 0.71100003 -0.033658739 1.1667772e-38 323 267
0.0049864799 0.71100003 -0.033658739 1.1392983e-38 324 267
0.0062506334 0.713 -0.033753417 1.1392983e-38 325 267
0.0075007593 0.713 -0.033753417 1.1392983e-38 326 267
0.0087508867 0.713 -0.033753417 1.1392983e-38 327 267
0.01001504 0.71399999 -0.033800758 1.1392265e-38 328 267
0.01129848 0.71600002 -0.03389544 1.1392265e-38 329 267
0.012553867 0.71600002 -0.03389544 1.130043e-38 330 267
0.013809253 0.71600002 -0.03389544 1.1392983e-38 331 267
0.015085679 0.71700001 -0.033942781 1.1118918e-38 332 267
0.016342819 0.71700001 -0.033942781 1.1671733e-38 333 267
0.017649053 0.71899998 -0.03403746 1.1579888e-38 334 267
0.018909698 0.71899998 -0.03403746 1.3147572e-38 335 267
0.020170346 0.71899998 -0.03403746 1.3902048e-38 336 267
0.021430992 0.71899998 -0.03403746 1.6575721e-38 337 267
-0.037270606 0.73299998 -0.035985414 1.0764176e-38 291 268
-0.035985414 0.73299998 -0.035985414 1.2962459e-38 292 268
-0.03441618 0.727 -0.035690852 1.2778068e-38 293 268
-0.032959159 0.72299999 -0.035494477 1.2683705e-38 294 268
-0.031691495 0.72299999 -0.035494477 1.2498955e-38 295 268
-0.030381758 0.722 -0.035445385 1.2406043e-38 296 268
-0.029115854 0.722 -0.035445385 1.2221296e-38 297 268
-0.027772799 0.72000003 -0.035347197 1.2312772e-38 298 268
-0.026510401 0.72000003 -0.035347197 1.2128384e-38 299 268
-0.025248 0.72000003 -0.035347197 1.1944714e-38 300 268
-0.023952285 0.71899998 -0.035298105 1.2128745e-38 301 268
-0.02262852 0.71700001 -0.035199918 1.1944358e-38 302 268
-0.021371379 0.71700001 -0.035199918 1.2128748e-38 303 268
-0.020114239 0.71700001 -0.035199918 1.1944008e-38 304 268
-0.0188308 0.71600002 -0.035150826 1.2128039e-38 305 268
-0.017575413 0.71600002 -0.035150826 1.2036572e-38 306 268
-0.016320027 0.71600002 -0.035150826 1.2128768e-38 307 268
-0.015022559 0.71399999 -0.035052639 1.194653e-38 308 268
-0.01377068 0.71399999 -0.035052639 1.194653e-38 309 268
-0.012501267 0.713 -0.035003547 1.1947246e-38 310 268
-0.011251139 0.713 -0.035003547 1.2039444e-38 311 268
-0.0099729598 0.71100003 -0.034905359 1.1856128e-38 312 268
-0.0087263398 0.71100003 -0.034905359 1.1763931e-38 313 268
-0.0074797203 0.71100003 -0.034905359 1.1947953e-38 314 268
-0.0062330998 0.71100003 -0.034905359 1.1671367e-38 315 268
-0.0049864799 0.71100003 -0.034905359 1.1853236e-38 316 268
-0.0037398601 0.71100003 -0.034905359 1.1577012e-38 317 268
-0.0024932399 0.71100003 -0.034905359 1.1850725e-38 318 268
-0.00124662 0.71100003 -0.034905359 1.1758531e-38 319 268
0 0.71100003 -0.034905359 1.1667413e-38 320 268
0.00124662 0.71100003 -0.034905359 1.1575219e-38 321 268
0.0024932399 0.71100003 -0.034905359 1.1392265e-38 322 268
0.0037398601 0.71100003 -0.034905359 1.1484459e-38 323 268
0.0049864799 0.71100003 -0.034905359 1.1392265e-38 324 268
0.0062506334 0.713 -0.035003547 1.1392265e-38 325 268
0.0075007593 0.713 -0.035003547 1.130043e-38 326 268
0.0087631596 0.71399999 -0.035052639 1.130043e-38 327 268
0.01001504 0.71399999 -0.035052639 1.1117117e-38 328 268
0.01129848 0.71600002 -0.035150826 1.1117117e-38 329 268
0.012553867 0.71600002 -0.035150826 1.0934524e-38 330 268
0.013809253 0.71600002 -0.035150826 1.102672e-38 331 268
0.015085679 0.71700001 -0.035199918 1.1028166e-38 332 268
0.016342819 0.71700001 -0.035199918 1.1581339e-38 333 268
0.017649053 0.71899998 -0.035298105 1.1765358e-38 334 268
0.018909698 0.71899998 -0.035298105 1.2963541e-38 335 268
0.020170346 0.71899998 -0.035298105 1.4177909e-38 336 268
0.021520413 0.722 -0.035445385 1.6575356e-38 337 268
0.022786319 0.722 -0.035445385 1.6307416e-38 338 268
-0.037270606 0.73299998 -0.037270606 1.0766696e-38 291 269
-0.035985414 0.73299998 -0.037270606 1.2779515e-38 292 269
-0.03441618 0.727 -0.036965527 1.250257e-38 293 269
-0.033050332 0.72500002 -0.036863834 1.25926e-38 294 269
-0.031779166 0.72500002 -0.036863834 1.2315655e-38 295 269
-0.030423839 0.72299999 -0.036762137 1.2498607e-38 296 269
-0.029115854 0.722 -0.03671129 1.2406051e-38 297 269
-0.027772799 0.72000003 -0.036609601 1.2313137e-38 298 269
-0.026510401 0.72000003 -0.036609601 1.2313137e-38 299 269
-0.025248 0.72000003 -0.036609601 1.2037629e-38 300 269
-0.023952285 0.71899998 -0.036558751 1.2037629e-38 301 269
-0.02262852 0.71700001 -0.036457058 1.1944358e-38 302 269
-0.021371379 0.71700001 -0.036457058 1.1944358e-38 303 269
-0.020114239 0.71700001 -0.036457058 1.1944361e-38 304 269
-0.018857099 0.71700001 -0.036457058 1.2128392e-38 305 269
-0.017575413 0.71600002 -0.036406212 1.2037276e-38 306 269
-0.016320027 0.71600002 -0.036406212 1.2037276e-38 307 269
-0.01506464 0.71600002 -0.036406212 1.2129471e-38 308 269
-0.01377068 0.71399999 -0.036304519 1.2129471e-38 309 269
-0.012501267 0.713 -0.036253672 1.1946881e-38 310 269
-0.011251139 0.713 -0.036253672 1.1854685e-38 311 269
-0.0099729598 0.71100003 -0.036151983 1.1854685e-38 312 269
-0.0087263398 0.71100003 -0.036151983 1.1946881e-38 313 269
-0.0074797203 0.71100003 -0.036151983 1.1947234e-38 314 269
-0.0062330998 0.71100003 -0.036151983 1.1762484e-38 315 269
-0.0049864799 0.71100003 -0.036151983 1.1760685e-38 316 269
-0.0037398601 0.71100003 -0.036151983 1.1484459e-38 317 269
-0.0024932399 0.71100003 -0.036151983 1.1850725e-38 318 269
-0.00124662 0.71100003 -0.036151983 1.1758172e-38 319 269
0 0.71100003 -0.036151983 1.1667413e-38 320 269
0.00124662 0.71100003 -0.036151983 1.1667413e-38 321 269
0.0025002533 0.713 -0.036253672 1.1392265e-38 322 269
0.0037503797 0.713 -0.036253672 1.1392265e-38 323 269
0.0050005065 0.713 -0.036253672 1.1299712e-38 324 269
0.0062506334 0.713 -0.036253672 1.1299712e-38 325 269
0.0075007593 0.713 -0.036253672 1.11164e-38 326 269
0.0087631596 0.71399999 -0.036304519 1.11164e-38 327 269
0.01001504 0.71399999 -0.036304519 1.1024923e-38 328 269
0.01129848 0.71600002 -0.036406212 1.1117117e-38 329 269
0.012553867 0.71600002 -0.036406212 1.1026364e-38 330 269
0.013828539 0.71700001 -0.036457058 1.1211115e-38 331 269
0.015085679 0.71700001 -0.036457058 1.112108e-38 332 269
0.016388407 0.71899998 -0.036558751 1.1582058e-38 333 269
0.017649053 0.71899998 -0.036558751 1.1489124e-38 334 269
0.018935999 0.72000003 -0.036609601 1.305609e-38 335 269
0.020198401 0.72000003 -0.036609601 1.4363021e-38 336 269
0.021520413 0.722 -0.03671129 1.6576074e-38 337 269
0.022786319 0.722 -0.03671129 1.639854e-38 338 269
-0.037270606 0.73299998 -0.038555797 1.1414581e-38 291 270
-0.035985414 0.73299998 -0.038555797 1.2504721e-38 292 270
-0.034463517 0.72799999 -0.038292799 1.2227775e-38 293 270
-0.033050332 0.72500002 -0.038135 1.2777712e-38 294 270
-0.031779166 0.72500002 -0.038135 1.2317093e-38 295 270
-0.030423839 0.72299999 -0.038029801 1.2407134e-38 296 270
-0.029115854 0.722 -0.0379772 1.2222742e-38 297 270
-0.027849946 0.722 -0.0379772 1.222202e-38 298 270
-0.026510401 0.72000003 -0.037871998 1.222202e-38 299 270
-0.025248 0.72000003 -0.037871998 1.2130899e-38 300 270
-0.0239856 0.72000003 -0.037871998 1.2038345e-38 301 270
-0.022691639 0.71899998 -0.037819397 1.2037629e-38 302 270
-0.021430992 0.71899998 -0.037819397 1.2037629e-38 303 270
-0.020114239 0.71700001 -0.037714198 1.2128745e-38 304 270
-0.018857099 0.71700001 -0.037714198 1.2220941e-38 305 270
-0.017575413 0.71600002 -0.037661601 1.2038348e-38 306 270
-0.016320027 0.71600002 -0.037661601 1.1946152e-38 307 270
-0.01506464 0.71600002 -0.037661601 1.1946152e-38 308 270
-0.01377068 0.71399999 -0.037556399 1.1762121e-38 309 270
-0.012501267 0.713 -0.037503798 1.1762484e-38 310 270
-0.011251139 0.713 -0.037503798 1.1762484e-38 311 270
-0.0099729598 0.71100003 -0.037398599 1.1670291e-38 312 270
-0.0087263398 0.71100003 -0.037398599 1.1762487e-38 313 270
-0.0074797203 0.71100003 -0.037398599 1.1762484e-38 314 270
-0.0062330998 0.71100003 -0.037398599 1.1578093e-38 315 270
-0.0049864799 0.71100003 -0.037398599 1.1759966e-38 316 270
-0.0037398601 0.71100003 -0.037398599 1.1575577e-38 317 270
-0.0024932399 0.71100003 -0.037398599 1.1667054e-38 318 270
-0.00124662 0.71100003 -0.037398599 1.157486e-38 319 270
0 0.71100003 -0.037398599 1.1483383e-38 320 270
0.0012501266 0.713 -0.037503798 1.1483383e-38 321 270
0.0025002533 0.713 -0.037503798 1.130043e-38 322 270
0.0037503797 0.713 -0.037503798 1.130043e-38 323 270
0.0050005065 0.713 -0.037503798 1.11164e-38 324 270
0.0062506334 0.713 -0.037503798 1.11164e-38 325 270
0.0075007593 0.713 -0.037503798 1.1024923e-38 326 270
0.0087631596 0.71399999 -0.037556399 1.1024923e-38 327 270
0.010043093 0.71600002 -0.037661601 1.0749775e-38 328 270
0.01129848 0.71600002 -0.037661601 1.0934524e-38 329 270
0.012553867 0.71600002 -0.037661601 1.0660458e-38 330 270
0.013828539 0.71700001 -0.037714198 1.0936686e-38 331 270
0.015085679 0.71700001 -0.037714198 1.1121799e-38 332 270
0.016388407 0.71899998 -0.037819397 1.1490942e-38 333 270
0.017649053 0.71899998 -0.037819397 1.1488048e-38 334 270
0.018935999 0.72000003 -0.037871998 1.3516352e-38 335 270
0.020254506 0.722 -0.0379772 1.4917273e-38 336 270
0.021520413 0.722 -0.0379772 1.6668989e-38 337 270
0.022786319 0.722 -0.0379772 1.6121953e-38 338 270
-0.035739943 0.72799999 -0.039569225 1.2781304e-38 292 271
-0.034463517 0.72799999 -0.039569225 1.2228131e-38 293 271
-0.033050332 0.72500002 -0.039406165 1.2778068e-38 294 271
-0.031779166 0.72500002 -0.039406165 1.2501121e-38 295 271
-0.030423839 0.72299999 -0.039297458 1.2408209e-38 296 271
-0.029115854 0.722 -0.039243106 1.2223459e-38 297 271
-0.027849946 0.722 -0.039243106 1.2314936e-38 298 271
-0.026510401 0.72000003 -0.039134402 1.2222739e-38 299 271
-0.025248 0.72000003 -0.039134402 1.2223095e-38 300 271
-0.0239856 0.72000003 -0.039134402 1.2223095e-38 301 271
-0.022691639 0.71899998 -0.039080046 1.2130899e-38 302 271
-0.021430992 0.71899998 -0.039080046 1.2038345e-38 303 271
-0.020114239 0.71700001 -0.038971342 1.213018e-38 304 271
-0.018857099 0.71700001 -0.038971342 1.213018e-38 305 271
-0.017599959 0.71700001 -0.038971342 1.2038345e-38 306 271
-0.016320027 0.71600002 -0.038916986 1.1762118e-38 307 271
-0.01506464 0.71600002 -0.038916986 1.2037983e-38 308 271
-0.01377068 0.71399999 -0.038808275 1.2037983e-38 309 271
-0.012518799 0.71399999 -0.038808275 1.2037626e-38 310 271
-0.011251139 0.713 -0.038753927 1.194543e-38 311 271
-0.010001013 0.713 -0.038753927 1.1761765e-38 312 271
-0.0087263398 0.71100003 -0.038645219 1.1669569e-38 313 271
-0.0074797203 0.71100003 -0.038645219 1.1852882e-38 314 271
-0.0062330998 0.71100003 -0.038645219 1.1760685e-38 315 271
-0.0049864799 0.71100003 -0.038645219 1.1760324e-38 316 271
-0.0037398601 0.71100003 -0.038645219 1.1667772e-38 317 271
-0.0024932399 0.71100003 -0.038645219 1.166813e-38 318 271
-0.00124662 0.71100003 -0.038645219 1.1575936e-38 319 271
0 0.713 -0.038753927 1.1392624e-38 320 271
0.0012501266 0.713 -0.038753927 1.1484818e-38 321 271
0.0025002533 0.713 -0.038753927 1.1392983e-38 322 271
0.0037503797 0.713 -0.038753927 1.1300788e-38 323 271
0.0050075199 0.71399999 -0.038808275 1.1117476e-38 324 271
0.0062593995 0.71399999 -0.038808275 1.1117476e-38 325 271
0.0075112795 0.71399999 -0.038808275 1.0842328e-38 326 271
0.0087877065 0.71600002 -0.038916986 1.0842328e-38 327 271
0.010043093 0.71600002 -0.038916986 1.084197e-38 328 271
0.01129848 0.71600002 -0.038916986 1.102672e-38 329 271
0.0125714 0.71700001 -0.038971342 1.0661178e-38 330 271
0.013828539 0.71700001 -0.038971342 1.0845569e-38 331 271
0.015085679 0.71700001 -0.038971342 1.1213997e-38 332 271
0.016388407 0.71899998 -0.039080046 1.158314e-38 333 271
0.017649053 0.71899998 -0.039080046 1.1580241e-38 334 271
0.018935999 0.72000003 -0.039134402 1.3885492e-38 335 271
0.020254506 0.722 -0.039243106 1.5472601e-38 336 271
0.021520413 0.722 -0.039243106 1.6670785e-38 337 271
0.022786319 0.722 -0.039243106 1.5937201e-38 338 271
-0.035592668 0.72500002 -0.040677335 1.305969e-38 292 272
-0.034321502 0.72500002 -0.040677335 1.2229929e-38 293 272
-0.033050332 0.72500002 -0.040677335 1.2690186e-38 294 272
-0.031779166 0.72500002 -0.040677335 1.1860423e-38 295 272
-0.030423839 0.72299999 -0.040565118 1.2500768e-38 296 272
-0.029115854 0.722 -0.040509012 1.2132345e-38 297 272
-0.027849946 0.722 -0.040509012 1.2223459e-38 298 272
-0.026510401 0.72000003 -0.040396802 1.2223459e-38 299 272
-0.025248 0.72000003 -0.040396802 1.2223814e-38 300 272
-0.0239856 0.72000003 -0.040396802 1.2039424e-38 301 272
-0.022723202 0.72000003 -0.040396802 1.2130899e-38 302 272
-0.021460801 0.72000003 -0.040396802 1.2130899e-38 303 272
-0.020170346 0.71899998 -0.040340692 1.2038348e-38 304 272
-0.018857099 0.71700001 -0.040228479 1.2038348e-38 305 272
-0.017599959 0.71700001 -0.040228479 1.2130543e-38 306 272
-0.016320027 0.71600002 -0.040172372 1.2038348e-38 307 272
-0.01506464 0.71600002 -0.040172372 1.2038701e-38 308 272
-0.013809253 0.71600002 -0.040172372 1.1946507e-38 309 272
-0.012518799 0.71399999 -0.040060159 1.1946507e-38 310 272
-0.011251139 0.713 -0.040004052 1.1762477e-38 311 272
-0.010001013 0.713 -0.040004052 1.1853236e-38 312 272
-0.0087508867 0.713 -0.040004052 1.1853236e-38 313 272
-0.0075007593 0.713 -0.040004052 1.1853236e-38 314 272
-0.0062506334 0.713 -0.040004052 1.1761042e-38 315 272
-0.0050005065 0.713 -0.040004052 1.1577012e-38 316 272
-0.0037398601 0.71100003 -0.039891839 1.1577012e-38 317 272
-0.0024932399 0.71100003 -0.039891839 1.1485535e-38 318 272
-0.00124662 0.71100003 -0.039891839 1.1485535e-38 319 272
0 0.71100003 -0.039891839 1.1394417e-38 320 272
0.0012501266 0.713 -0.040004052 1.1302223e-38 321 272
0.0025002533 0.713 -0.040004052 1.1301864e-38 322 272
0.0037556398 0.71399999 -0.040060159 1.1301864e-38 323 272
0.0050075199 0.71399999 -0.040060159 1.1027075e-38 324 272
0.0062593995 0.71399999 -0.040060159 1.1027075e-38 325 272
0.0075112795 0.71399999 -0.040060159 1.0934522e-38 326 272
0.0087877065 0.71600002 -0.040172372 1.0934522e-38 327 272
0.010043093 0.71600002 -0.040172372 1.0659733e-38 328 272
0.01129848 0.71600002 -0.040172372 1.0751928e-38 329 272
0.0125714 0.71700001 -0.040228479 1.084449e-38 330 272
0.013828539 0.71700001 -0.040228479 1.1121436e-38 331 272
0.015085679 0.71700001 -0.040228479 1.1214348e-38 332 272
0.016388407 0.71899998 -0.040340692 1.1491295e-38 333 272
0.017649053 0.71899998 -0.040340692 1.1860058e-38 334 272
0.018935999 0.72000003 -0.040396802 1.4625927e-38 335 272
0.020254506 0.722 -0.040509012 1.6027573e-38 336 272
0.021520413 0.722 -0.040509012 1.6488192e-38 337 272
-0.034321502 0.72500002 -0.041948501 1.1683945e-38 293 273
-0.033050332 0.72500002 -0.041948501 1.2596544e-38 294 273
-0.031779166 0.72500002 -0.041948501 1.2227761e-38 295 273
-0.030423839 0.72299999 -0.041832779 1.2500405e-38 296 273
-0.029115854 0.722 -0.041774917 1.2315655e-38 297 273
-0.027849946 0.722 -0.041774917 1.2223095e-38 298 273
-0.026510401 0.72000003 -0.041659199 1.2315291e-38 299 273
-0.025248 0.72000003 -0.041659199 1.2314936e-38 300 273
-0.0239856 0.72000003 -0.041659199 1.2222739e-38 301 273
-0.022723202 0.72000003 -0.041659199 1.2222023e-38 302 273
-0.021460801 0.72000003 -0.041659199 1.2222023e-38 303 273
-0.020170346 0.71899998 -0.041601337 1.2130543e-38 304 273
-0.018857099 0.71700001 -0.041485619 1.2038348e-38 305 273
-0.017599959 0.71700001 -0.041485619 1.2220941e-38 306 273
-0.016342819 0.71700001 -0.041485619 1.2313137e-38 307 273
