# .PCD v.7 - Point Cloud Data file format
FIELDS x y z rgb imX imY
SIZE 4 4 4 4 4 4
TYPE F F F F F F
COUNT 1 1 1 1 1 1
WIDTH 840
HEIGHT 1
VIEWPOINT 0 0 0 1 0 0 0
POINTS 840
DATA ascii
-0.0037556398 0.71399999 -0.020030079 1.2868449e-38 317 256
-0.0025037599 0.71399999 -0.020030079 1.2775896e-38 318 256
-0.00125188 0.71399999 -0.020030079 1.2499313e-38 319 256
0 0.71399999 -0.020030079 1.240676e-38 320 256
0.00125188 0.71399999 -0.020030079 1.240676e-38 321 256
0.0025037599 0.71399999 -0.020030079 1.2406051e-38 322 256
0.0037556398 0.71399999 -0.020030079 1.2406051e-38 323 256
0.0050215465 0.71600002 -0.020086186 1.2222742e-38 324 256
0.0062769335 0.71600002 -0.020086186 1.2314939e-38 325 256
0.0075007593 0.713 -0.020002026 1.2131992e-38 326 256
0.0087508867 0.713 -0.020002026 1.2131992e-38 327 256
0.01005712 0.71700001 -0.020114239 1.2317827e-38 328 256
0.01131426 0.71700001 -0.020114239 1.250222e-38 329 256
0.0125714 0.71700001 -0.020114239 1.2321074e-38 330 256
0.013828539 0.71700001 -0.020114239 1.2873889e-38 331 256
0.015085679 0.71700001 -0.020114239 1.0758804e-38 332 256
0.016342819 0.71700001 -0.020114239 1.2418324e-38 333 256
0.017599959 0.71700001 -0.020114239 1.5389816e-38 334 256
-0.039677933 0.73000002 -0.021758866 9.1169025e-39 289 257
-0.038398001 0.73000002 -0.021758866 1.2226005e-38 290 257
-0.037016369 0.72799999 -0.021699252 1.3055766e-38 291 257
-0.035739943 0.72799999 -0.021699252 1.3146164e-38 292 257
-0.034463517 0.72799999 -0.021699252 1.277738e-38 293 257
-0.033141505 0.727 -0.021669446 1.3142202e-38 294 257
-0.031779166 0.72500002 -0.021609833 1.3049648e-38 295 257
-0.030423839 0.72299999 -0.021550218 1.2867758e-38 296 257
-0.029115854 0.722 -0.021520413 1.2959955e-38 297 257
-0.027772799 0.72000003 -0.021460801 1.3053579e-38 298 257
-0.02647358 0.71899998 -0.021430992 1.3053579e-38 299 257
-0.025212931 0.71899998 -0.021430992 1.2870264e-38 300 257
-0.02388566 0.71700001 -0.021371379 1.2962459e-38 301 257
-0.02262852 0.71700001 -0.021371379 1.3055371e-38 302 257
-0.021371379 0.71700001 -0.021371379 1.3331958e-38 303 257
-0.020114239 0.71700001 -0.021371379 1.2873131e-38 304 257
-0.018857099 0.71700001 -0.021371379 1.2688739e-38 305 257
-0.017575413 0.71600002 -0.021341572 1.2871686e-38 306 257
-0.016320027 0.71600002 -0.021341572 1.2410708e-38 307 257
-0.01506464 0.71600002 -0.021341572 1.2775896e-38 308 257
-0.01377068 0.71399999 -0.021281958 1.2499313e-38 309 257
-0.012518799 0.71399999 -0.021281958 1.2588996e-38 310 257
-0.011266919 0.71399999 -0.021281958 1.2404249e-38 311 257
-0.010001013 0.713 -0.021252153 1.2495367e-38 312 257
-0.0087508867 0.713 -0.021252153 1.2403173e-38 313 257
-0.0075007593 0.713 -0.021252153 1.2588647e-38 314 257
-0.0062506334 0.713 -0.021252153 1.2865594e-38 315 257
-0.0050005065 0.713 -0.021252153 1.2776266e-38 316 257
-0.0037556398 0.71399999 -0.021281958 1.2868462e-38 317 257
-0.0025037599 0.71399999 -0.021281958 1.2868096e-38 318 257
-0.00125188 0.71399999 -0.021281958 1.259115e-38 319 257
0 0.71399999 -0.021281958 1.240676e-38 320 257
0.0012501266 0.713 -0.021252153 1.2498956e-38 321 257
0.0025002533 0.713 -0.021252153 1.2406407e-38 322 257
0.0037503797 0.713 -0.021252153 1.2406407e-38 323 257
0.0050075199 0.71399999 -0.021281958 1.2222739e-38 324 257
0.0062593995 0.71399999 -0.021281958 1.2222739e-38 325 257
0.00753232 0.71600002 -0.021341572 1.2222742e-38 326 257
0.0087877065 0.71600002 -0.021341572 1.2314939e-38 327 257
0.010043093 0.71600002 -0.021341572 1.2224191e-38 328 257
0.01131426 0.71700001 -0.021371379 1.2500417e-38 329 257
0.0125714 0.71700001 -0.021371379 1.2318204e-38 330 257
0.013828539 0.71700001 -0.021371379 1.2686626e-38 331 257
0.015085679 0.71700001 -0.021371379 1.0937447e-38 332 257
0.016342819 0.71700001 -0.021371379 1.1030001e-38 333 257
0.017599959 0.71700001 -0.021371379 1.3818898e-38 334 257
0.018909698 0.71899998 -0.021430992 1.6584767e-38 335 257
-0.041013971 0.73100001 -0.02307036 1.5844305e-38 288 258
-0.039677933 0.73000002 -0.023038799 9.02183e-39 289 258
-0.038292799 0.72799999 -0.022975679 1.2131286e-38 290 258
-0.037016369 0.72799999 -0.022975679 1.2592263e-38 291 258
-0.035739943 0.72799999 -0.022975679 1.2866689e-38 292 258
-0.03441618 0.727 -0.022944121 1.2682298e-38 293 258
-0.033141505 0.727 -0.022944121 1.2865607e-38 294 258
-0.031779166 0.72500002 -0.022880999 1.2957803e-38 295 258
-0.030423839 0.72299999 -0.02281788 1.2867039e-38 296 258
-0.029115854 0.722 -0.022786319 1.305107e-38 297 258
-0.027772799 0.72000003 -0.022723202 1.296103e-38 298 258
-0.02647358 0.71899998 -0.022691639 1.3053226e-38 299 258
-0.025212931 0.71899998 -0.022691639 1.3147939e-38 300 258
-0.02388566 0.71700001 -0.02262852 1.3240135e-38 301 258
-0.02262852 0.71700001 -0.02262852 1.3150456e-38 302 258
-0.021371379 0.71700001 -0.02262852 1.3242652e-38 303 258
-0.020114239 0.71700001 -0.02262852 1.306006e-38 304 258
-0.018857099 0.71700001 -0.02262852 1.306006e-38 305 258
-0.017575413 0.71600002 -0.022596961 1.3335568e-38 306 258
-0.016320027 0.71600002 -0.022596961 1.2967144e-38 307 258
-0.015022559 0.71399999 -0.022533838 1.3331607e-38 308 258
-0.01377068 0.71399999 -0.022533838 1.2778434e-38 309 258
-0.012518799 0.71399999 -0.022533838 1.2775194e-38 310 258
-0.011251139 0.713 -0.022502279 1.2590803e-38 311 258
-0.010001013 0.713 -0.022502279 1.2220944e-38 312 258
-0.0087508867 0.713 -0.022502279 1.2220944e-38 313 258
-0.0075007593 0.713 -0.022502279 1.2496089e-38 314 258
-0.0062506334 0.713 -0.022502279 1.2772676e-38 315 258
-0.0050005065 0.713 -0.022502279 1.2866661e-38 316 258
-0.0037503797 0.713 -0.022502279 1.2958856e-38 317 258
-0.0025002533 0.713 -0.022502279 1.2683705e-38 318 258
-0.0012501266 0.713 -0.022502279 1.2498955e-38 319 258
0 0.71399999 -0.022533838 1.24986e-38 320 258
0.0012501266 0.713 -0.022502279 1.2406404e-38 321 258
0.0025002533 0.713 -0.022502279 1.222202e-38 322 258
0.0037503797 0.713 -0.022502279 1.222202e-38 323 258
0.0050005065 0.713 -0.022502279 1.2222739e-38 324 258
0.0062506334 0.713 -0.022502279 1.2222739e-38 325 258
0.0075007593 0.713 -0.022502279 1.2130543e-38 326 258
0.0087508867 0.713 -0.022502279 1.2222739e-38 327 258
0.010043093 0.71600002 -0.022596961 1.2407137e-38 328 258
0.01129848 0.71600002 -0.022596961 1.2683364e-38 329 258
0.0125714 0.71700001 -0.02262852 1.213344e-38 330 258
0.013828539 0.71700001 -0.02262852 1.2409668e-38 331 258
0.015085679 0.71700001 -0.02262852 1.1765752e-38 332 258
0.016388407 0.71899998 -0.022691639 1.1120382e-38 333 258
0.017649053 0.71899998 -0.022691639 1.2151459e-38 334 258
0.018935999 0.72000003 -0.022723202 1.6392817e-38 335 258
0.020198401 0.72000003 -0.022723202 1.7323405e-38 336 258
-0.042295661 0.73100001 -0.024352046 1.7601061e-38 287 259
-0.041013971 0.73100001 -0.024352046 1.5750666e-38 288 259
-0.039677933 0.73000002 -0.024318734 9.2047765e-39 289 259
-0.038292799 0.72799999 -0.024252106 1.2221317e-38 290 259
-0.037016369 0.72799999 -0.024252106 1.2682295e-38 291 259
-0.035739943 0.72799999 -0.024252106 1.2773409e-38 292 259
-0.03441618 0.727 -0.024218792 1.2773409e-38 293 259
-0.033141505 0.727 -0.024218792 1.268014e-38 294 259
-0.031779166 0.72500002 -0.024152167 1.2864891e-38 295 259
-0.030423839 0.72299999 -0.024085538 1.2498627e-38 296 259
-0.029115854 0.722 -0.024052227 1.2775212e-38 297 259
-0.027772799 0.72000003 -0.0239856 1.2501148e-38 298 259
-0.02647358 0.71899998 -0.023952285 1.2869929e-38 299 259
-0.025212931 0.71899998 -0.023952285 1.2689132e-38 300 259
-0.02388566 0.71700001 -0.02388566 1.3242306e-38 301 259
-0.022596961 0.71600002 -0.023852346 1.3152621e-38 302 259
-0.021341572 0.71600002 -0.023852346 1.3429568e-38 303 259
-0.020114239 0.71700001 -0.02388566 1.3248041e-38 304 259
-0.0188308 0.71600002 -0.023852346 1.3248041e-38 305 259
-0.017575413 0.71600002 -0.023852346 1.3432082e-38 306 259
-0.016320027 0.71600002 -0.023852346 1.3339886e-38 307 259
-0.015022559 0.71399999 -0.02378572 1.352033e-38 308 259
-0.01377068 0.71399999 -0.02378572 1.2874961e-38 309 259
-0.012518799 0.71399999 -0.02378572 1.3055377e-38 310 259
-0.011251139 0.713 -0.023752406 1.2502203e-38 311 259
-0.010001013 0.713 -0.023752406 1.2774112e-38 312 259
-0.0087508867 0.713 -0.023752406 1.2313493e-38 313 259
-0.0075007593 0.713 -0.023752406 1.231314e-38 314 259
-0.0062506334 0.713 -0.023752406 1.231314e-38 315 259
-0.0050005065 0.713 -0.023752406 1.2406054e-38 316 259
-0.0037503797 0.713 -0.023752406 1.2498251e-38 317 259
-0.0025002533 0.713 -0.023752406 1.2497884e-38 318 259
-0.0012501266 0.713 -0.023752406 1.2497884e-38 319 259
0 0.713 -0.023752406 1.2406051e-38 320 259
0.00124662 0.71100003 -0.023685781 1.222202e-38 321 259
0.0024932399 0.71100003 -0.023685781 1.2130543e-38 322 259
0.0037398601 0.71100003 -0.023685781 1.2222739e-38 323 259
0.0050005065 0.713 -0.023752406 1.2039427e-38 324 259
0.0062506334 0.713 -0.023752406 1.2039427e-38 325 259
0.0075007593 0.713 -0.023752406 1.203943e-38 326 259
0.0087508867 0.713 -0.023752406 1.203943e-38 327 259
0.01001504 0.71399999 -0.02378572 1.2039797e-38 328 259
0.01129848 0.71600002 -0.023852346 1.2131992e-38 329 259
0.012553867 0.71600002 -0.023852346 1.2041241e-38 330 259
0.013828539 0.71700001 -0.02388566 1.2133437e-38 331 259
0.015085679 0.71700001 -0.02388566 1.1859017e-38 332 259
0.016388407 0.71899998 -0.023952285 1.0660475e-38 333 259
0.017649053 0.71899998 -0.023952285 1.0944986e-38 334 259
0.018935999 0.72000003 -0.0239856 1.5739519e-38 335 259
0.020198401 0.72000003 -0.0239856 1.686278e-38 336 259
-0.042295661 0.73100001 -0.025633732 1.7508868e-38 287 260
-0.041013971 0.73100001 -0.025633732 1.5658473e-38 288 260
-0.039569225 0.72799999 -0.025528532 9.2969749e-39 289 260
-0.038292799 0.72799999 -0.025528532 1.2405707e-38 290 260
-0.037016369 0.72799999 -0.025528532 1.2405707e-38 291 260
-0.035739943 0.72799999 -0.025528532 1.2773399e-38 292 260
-0.03441618 0.727 -0.025493465 1.2404616e-38 293 260
-0.033050332 0.72500002 -0.025423333 1.2587929e-38 294 260
-0.031691495 0.72299999 -0.025353199 1.2680124e-38 295 260
-0.030381758 0.722 -0.025318133 1.2589733e-38 296 260
-0.029115854 0.722 -0.025318133 1.2773765e-38 297 260
-0.027772799 0.72000003 -0.025248 1.2499701e-38 298 260
-0.02647358 0.71899998 -0.025212931 1.2684093e-38 299 260
-0.025212931 0.71899998 -0.025212931 1.2871728e-38 300 260
-0.02388566 0.71700001 -0.0251428 1.324015e-38 301 260
-0.022596961 0.71600002 -0.025107734 1.3337385e-38 302 260
-0.021341572 0.71600002 -0.025107734 1.407495e-38 303 260
-0.020114239 0.71700001 -0.0251428 1.361901e-38 304 260
-0.0188308 0.71600002 -0.025107734 1.3711565e-38 305 260
-0.017575413 0.71600002 -0.025107734 1.3438215e-38 306 260
-0.016274439 0.71399999 -0.025037598 1.3806998e-38 307 260
-0.015022559 0.71399999 -0.025037598 1.4266903e-38 308 260
-0.013751393 0.713 -0.025002534 1.3344948e-38 309 260
-0.012501267 0.713 -0.025002534 1.3613975e-38 310 260
-0.011251139 0.713 -0.025002534 1.2415432e-38 311 260
-0.010001013 0.713 -0.025002534 1.2778083e-38 312 260
-0.0087508867 0.713 -0.025002534 1.204016e-38 313 260
-0.0075007593 0.713 -0.025002534 1.231314e-38 314 260
-0.0062330998 0.71100003 -0.024932399 1.2405335e-38 315 260
-0.0049864799 0.71100003 -0.024932399 1.2403535e-38 316 260
-0.0037398601 0.71100003 -0.024932399 1.2588284e-38 317 260
-0.0024932399 0.71100003 -0.024932399 1.2404972e-38 318 260
-0.00124662 0.71100003 -0.024932399 1.2404972e-38 319 260
0 0.71100003 -0.024932399 1.2313137e-38 320 260
0.00124662 0.71100003 -0.024932399 1.2313137e-38 321 260
0.0024932399 0.71100003 -0.024932399 1.2130896e-38 322 260
0.0037398601 0.71100003 -0.024932399 1.2223092e-38 323 260
0.0050005065 0.713 -0.025002534 1.2039777e-38 324 260
0.0062506334 0.713 -0.025002534 1.1947583e-38 325 260
0.0075007593 0.713 -0.025002534 1.2039424e-38 326 260
0.0087508867 0.713 -0.025002534 1.2039424e-38 327 260
0.01001504 0.71399999 -0.025037598 1.204015e-38 328 260
0.01129848 0.71600002 -0.025107734 1.2132345e-38 329 260
0.012553867 0.71600002 -0.025107734 1.2224188e-38 330 260
0.013828539 0.71700001 -0.0251428 1.2316384e-38 331 260
0.015085679 0.71700001 -0.0251428 1.1948695e-38 332 260
0.016388407 0.71899998 -0.025212931 1.18565e-38 333 260
0.017649053 0.71899998 -0.025212931 1.0569376e-38 334 260
0.018935999 0.72000003 -0.025248 1.4810015e-38 335 260
-0.042122077 0.72799999 -0.026804959 1.7415954e-38 287 261
-0.040845651 0.72799999 -0.026804959 1.5474081e-38 288 261
-0.039569225 0.72799999 -0.026804959 9.481006e-39 289 261
-0.038292799 0.72799999 -0.026804959 1.2407137e-38 290 261
-0.037016369 0.72799999 -0.026804959 1.2407137e-38 291 261
-0.035739943 0.72799999 -0.026804959 1.2590435e-38 292 261
-0.03441618 0.727 -0.026768139 1.2405685e-38 293 261
-0.033050332 0.72500002 -0.026694499 1.2495733e-38 294 261
-0.031691495 0.72299999 -0.026620859 1.2680124e-38 295 261
-0.030381758 0.722 -0.026584039 1.2404988e-38 296 261
-0.029115854 0.722 -0.026584039 1.2497183e-38 297 261
-0.027772799 0.72000003 -0.026510401 1.2222052e-38 298 261
-0.02647358 0.71899998 -0.02647358 1.2406802e-38 299 261
-0.025212931 0.71899998 -0.02647358 1.2133822e-38 300 261
-0.02388566 0.71700001 -0.02639994 1.2963942e-38 301 261
-0.02262852 0.71700001 -0.02639994 1.3061172e-38 302 261
-0.021371379 0.71700001 -0.02639994 1.3890934e-38 303 261
-0.020114239 0.71700001 -0.02639994 1.3342432e-38 304 261
-0.0188308 0.71600002 -0.026363119 1.3803411e-38 305 261
-0.017575413 0.71600002 -0.026363119 1.3899196e-38 306 261
-0.016274439 0.71399999 -0.026289478 1.3991392e-38 307 261
-0.015022559 0.71399999 -0.026289478 1.4266547e-38 308 261
-0.013751393 0.713 -0.026252659 1.3898124e-38 309 261
-0.012501267 0.713 -0.026252659 1.3525382e-38 310 261
-0.011251139 0.713 -0.026252659 1.2603065e-38 311 261
-0.010001013 0.713 -0.026252659 1.2964993e-38 312 261
-0.0087508867 0.713 -0.026252659 1.19512e-38 313 261
-0.0075007593 0.713 -0.026252659 1.2497898e-38 314 261
-0.0062330998 0.71100003 -0.026179021 1.2037279e-38 315 261
-0.0049864799 0.71100003 -0.026179021 1.2312786e-38 316 261
-0.0037398601 0.71100003 -0.026179021 1.2220591e-38 317 261
-0.0024932399 0.71100003 -0.026179021 1.2220588e-38 318 261
-0.00124662 0.71100003 -0.026179021 1.2220588e-38 319 261
0 0.71100003 -0.026179021 1.2037276e-38 320 261
0.00124662 0.71100003 -0.026179021 1.2129471e-38 321 261
0.0024932399 0.71100003 -0.026179021 1.2038351e-38 322 261
0.0037398601 0.71100003 -0.026179021 1.2130546e-38 323 261
0.0049864799 0.71100003 -0.026179021 1.2039427e-38 324 261
0.0062506334 0.713 -0.026252659 1.1947231e-38 325 261
0.0075007593 0.713 -0.026252659 1.203943e-38 326 261
0.0087508867 0.713 -0.026252659 1.203943e-38 327 261
0.01001504 0.71399999 -0.026289478 1.2039076e-38 328 261
0.01129848 0.71600002 -0.026363119 1.2039076e-38 329 261
0.012553867 0.71600002 -0.026363119 1.2039799e-38 330 261
0.013828539 0.71700001 -0.02639994 1.2131995e-38 331 261
0.015085679 0.71700001 -0.02639994 1.1673188e-38 332 261
0.016342819 0.71700001 -0.02639994 1.1949414e-38 333 261
0.017599959 0.71700001 -0.02639994 1.0750521e-38 334 261
0.018857099 0.71700001 -0.02639994 1.3608587e-38 335 261
-0.042122077 0.72799999 -0.028081384 1.7323758e-38 287 262
-0.040845651 0.72799999 -0.028081384 1.5382964e-38 288 262
-0.039569225 0.72799999 -0.028081384 9.4824438e-39 289 262
-0.038292799 0.72799999 -0.028081384 1.2499701e-38 290 262
-0.037016369 0.72799999 -0.028081384 1.2222756e-38 291 262
-0.035739943 0.72799999 -0.028081384 1.2590803e-38 292 262
-0.03441618 0.727 -0.028042812 1.222202e-38 293 262
-0.033050332 0.72500002 -0.027965667 1.2405332e-38 294 262
-0.031691495 0.72299999 -0.02788852 1.2220941e-38 295 262
-0.030381758 0.722 -0.027849946 1.231207e-38 296 262
-0.029115854 0.722 -0.027849946 1.231207e-38 297 262
-0.027772799 0.72000003 -0.027772799 1.222024e-38 298 262
-0.026510401 0.72000003 -0.027772799 1.2312436e-38 299 262
-0.025212931 0.71899998 -0.027734226 1.2131292e-38 300 262
-0.02388566 0.71700001 -0.027657079 1.2684465e-38 301 262
-0.02262852 0.71700001 -0.027657079 1.2598752e-38 302 262
-0.021371379 0.71700001 -0.027657079 1.3336317e-38 303 262
-0.020114239 0.71700001 -0.027657079 1.3430312e-38 304 262
-0.0188308 0.71600002 -0.027618507 1.4259713e-38 305 262
-0.017575413 0.71600002 -0.027618507 1.3710862e-38 306 262
-0.016274439 0.71399999 -0.02754136 1.3710862e-38 307 262
-0.015001519 0.713 -0.027502786 1.3525397e-38 308 262
-0.013751393 0.713 -0.027502786 1.3432843e-38 309 262
-0.012501267 0.713 -0.027502786 1.3340279e-38 310 262
-0.011251139 0.713 -0.027502786 1.2694909e-38 311 262
-0.010001013 0.713 -0.027502786 1.2780977e-38 312 262
-0.0087263398 0.71100003 -0.027425639 1.2135608e-38 313 262
-0.0074797203 0.71100003 -0.027425639 1.2497904e-38 314 262
-0.0062330998 0.71100003 -0.027425639 1.2221317e-38 315 262
-0.0049864799 0.71100003 -0.027425639 1.2128395e-38 316 262
-0.0037398601 0.71100003 -0.027425639 1.2128395e-38 317 262
-0.0024932399 0.71100003 -0.027425639 1.2128392e-38 318 262
-0.00124662 0.71100003 -0.027425639 1.1944361e-38 319 262
0 0.71100003 -0.027425639 1.1944361e-38 320 262
0.00124662 0.71100003 -0.027425639 1.2128392e-38 321 262
0.0024932399 0.71100003 -0.027425639 1.2037276e-38 322 262
0.0037398601 0.71100003 -0.027425639 1.2037276e-38 323 262
0.0049864799 0.71100003 -0.027425639 1.2038348e-38 324 262
0.0062506334 0.713 -0.027502786 1.2038348e-38 325 262
0.0075007593 0.713 -0.027502786 1.2038348e-38 326 262
0.0087508867 0.713 -0.027502786 1.2130543e-38 327 262
0.01001504 0.71399999 -0.02754136 1.1946878e-38 328 262
0.01129848 0.71600002 -0.027618507 1.1946878e-38 329 262
0.012553867 0.71600002 -0.027618507 1.2039074e-38 330 262
0.013809253 0.71600002 -0.027618507 1.2223106e-38 331 262
0.015085679 0.71700001 -0.027657079 1.1764287e-38 332 262
0.016342819 0.71700001 -0.027657079 1.1671733e-38 333 262
0.017599959 0.71700001 -0.027657079 1.1116411e-38 334 262
0.018857099 0.71700001 -0.027657079 1.3513497e-38 335 262
-0.042122077 0.72799999 -0.029357811 1.7323035e-38 287 263
-0.040845651 0.72799999 -0.029357811 1.5658825e-38 288 263
-0.039569225 0.72799999 -0.029357811 1.0126729e-38 289 263
-0.038292799 0.72799999 -0.029357811 1.2868478e-38 290 263
-0.037016369 0.72799999 -0.029357811 1.24075e-38 291 263
-0.035739943 0.72799999 -0.029357811 1.2591156e-38 292 263
-0.03441618 0.727 -0.029317487 1.2222373e-38 293 263
-0.033050332 0.72500002 -0.029236834 1.2313493e-38 294 263
-0.031647664 0.722 -0.029115854 1.2128743e-38 295 263
-0.030381758 0.722 -0.029115854 1.2128395e-38 296 263
-0.029115854 0.722 -0.029115854 1.1944364e-38 297 263
-0.027772799 0.72000003 -0.029035201 1.1943655e-38 298 263
-0.026510401 0.72000003 -0.029035201 1.2128045e-38 299 263
-0.025212931 0.71899998 -0.028994869 1.1853626e-38 300 263
-0.02388566 0.71700001 -0.028914221 1.2222408e-38 301 263
-0.02262852 0.71700001 -0.028914221 1.2133459e-38 302 263
-0.021371379 0.71700001 -0.028914221 1.296322e-38 303 263
-0.020114239 0.71700001 -0.028914221 1.2966454e-38 304 263
-0.0188308 0.71600002 -0.028873893 1.3335596e-38 305 263
-0.017575413 0.71600002 -0.028873893 1.3153372e-38 306 263
-0.016274439 0.71399999 -0.028793238 1.3245568e-38 307 263
-0.015001519 0.713 -0.028752912 1.3336334e-38 308 263
-0.013751393 0.713 -0.028752912 1.3336334e-38 309 263
-0.012501267 0.713 -0.028752912 1.3152649e-38 310 263
-0.011251139 0.713 -0.028752912 1.2322888e-38 311 263
-0.0099729598 0.71100003 -0.028672259 1.2778459e-38 312 263
-0.0087263398 0.71100003 -0.028672259 1.213309e-38 313 263
-0.0074797203 0.71100003 -0.028672259 1.2497548e-38 314 263
-0.0062330998 0.71100003 -0.028672259 1.2129124e-38 315 263
-0.0049864799 0.71100003 -0.028672259 1.2037279e-38 316 263
-0.0037398601 0.71100003 -0.028672259 1.1852529e-38 317 263
-0.0024932399 0.71100003 -0.028672259 1.1852164e-38 318 263
-0.00124662 0.71100003 -0.028672259 1.1944361e-38 319 263
0 0.71100003 -0.028672259 1.1852161e-38 320 263
0.00124662 0.71100003 -0.028672259 1.1944358e-38 321 263
0.0024932399 0.71100003 -0.028672259 1.1852882e-38 322 263
0.0037398601 0.71100003 -0.028672259 1.1945077e-38 323 263
0.0049864799 0.71100003 -0.028672259 1.1762121e-38 324 263
0.0062506334 0.713 -0.028752912 1.1946152e-38 325 263
0.0075007593 0.713 -0.028752912 1.1945796e-38 326 263
0.0087508867 0.713 -0.028752912 1.2038351e-38 327 263
0.01001504 0.71399999 -0.028793238 1.167137e-38 328 263
0.01129848 0.71600002 -0.028873893 1.167137e-38 329 263
0.012553867 0.71600002 -0.028873893 1.1946878e-38 330 263
0.013809253 0.71600002 -0.028873893 1.1854682e-38 331 263
0.01506464 0.71600002 -0.028873893 1.1762131e-38 332 263
0.016342819 0.71700001 -0.028914221 1.1762131e-38 333 263
0.017599959 0.71700001 -0.028914221 1.1116764e-38 334 263
0.018857099 0.71700001 -0.028914221 1.2868481e-38 335 263
-0.0422378 0.73000002 -0.030718399 1.7323038e-38 287 264
-0.040957868 0.73000002 -0.030718399 1.5842137e-38 288 264
-0.039569225 0.72799999 -0.030634239 1.0679183e-38 289 264
-0.038292799 0.72799999 -0.030634239 1.2961753e-38 290 264
-0.037016369 0.72799999 -0.030634239 1.2500773e-38 291 264
-0.035690852 0.727 -0.030592158 1.2682995e-38 292 264
-0.03441618 0.727 -0.030592158 1.2406407e-38 293 264
-0.032959159 0.72299999 -0.030423839 1.2313493e-38 294 264
-0.031647664 0.722 -0.030381758 1.2128743e-38 295 264
-0.030381758 0.722 -0.030381758 1.2127673e-38 296 264
-0.029115854 0.722 -0.030381758 1.2035476e-38 297 264
-0.027772799 0.72000003 -0.0302976 1.1852531e-38 298 264
-0.026510401 0.72000003 -0.0302976 1.1852531e-38 299 264
-0.025212931 0.71899998 -0.030255521 1.1761418e-38 300 264
-0.023952285 0.71899998 -0.030255521 1.1945449e-38 301 264
-0.02262852 0.71700001 -0.030171359 1.1945827e-38 302 264
-0.021371379 0.71700001 -0.030171359 1.2591196e-38 303 264
-0.020114239 0.71700001 -0.030171359 1.2317854e-38 304 264
-0.0188308 0.71600002 -0.03012928 1.2778473e-38 305 264
-0.017575413 0.71600002 -0.03012928 1.2780276e-38 306 264
-0.016274439 0.71399999 -0.030045118 1.31487e-38 307 264
-0.015001519 0.713 -0.030003037 1.2873561e-38 308 264
-0.013751393 0.713 -0.030003037 1.2873561e-38 309 264
-0.012501267 0.713 -0.030003037 1.2780992e-38 310 264
-0.011251139 0.713 -0.030003037 1.2135623e-38 311 264
-0.0099729598 0.71100003 -0.029918881 1.2591912e-38 312 264
-0.0087263398 0.71100003 -0.029918881 1.2223131e-38 313 264
-0.0074797203 0.71100003 -0.029918881 1.2222756e-38 314 264
-0.0062330998 0.71100003 -0.029918881 1.1946528e-38 315 264
-0.0049864799 0.71100003 -0.029918881 1.1945799e-38 316 264
-0.0037345996 0.70999998 -0.029876797 1.1669572e-38 317 264
-0.0024897333 0.70999998 -0.029876797 1.1760685e-38 318 264
-0.00124662 0.71100003 -0.029918881 1.1760685e-38 319 264
0 0.71100003 -0.029918881 1.1760683e-38 320 264
0.00124662 0.71100003 -0.029918881 1.1853238e-38 321 264
0.0024932399 0.71100003 -0.029918881 1.1852882e-38 322 264
0.0037398601 0.71100003 -0.029918881 1.1852882e-38 323 264
0.0049864799 0.71100003 -0.029918881 1.1577737e-38 324 264
0.0062506334 0.713 -0.030003037 1.1762487e-38 325 264
0.0075007593 0.713 -0.030003037 1.1671014e-38 326 264
0.0087508867 0.713 -0.030003037 1.1578819e-38 327 264
0.01001504 0.71399999 -0.030045118 1.1578819e-38 328 264
0.01129848 0.71600002 -0.03012928 1.1671014e-38 329 264
0.012553867 0.71600002 -0.03012928 1.1762131e-38 330 264
0.013809253 0.71600002 -0.03012928 1.157774e-38 331 264
0.01506464 0.71600002 -0.03012928 1.1394427e-38 332 264
0.016342819 0.71700001 -0.030171359 1.1578819e-38 333 264
0.017599959 0.71700001 -0.030171359 1.1118565e-38 334 264
0.018857099 0.71700001 -0.030171359 1.2317108e-38 335 264
0.020114239 0.71700001 -0.030171359 1.3073026e-38 336 264
-0.0422378 0.73000002 -0.031998333 1.7323758e-38 287 265
-0.040957868 0.73000002 -0.031998333 1.5751738e-38 288 265
-0.039569225 0.72799999 -0.031910665 1.1049761e-38 289 265
-0.038292799 0.72799999 -0.031910665 1.3331252e-38 290 265
-0.037016369 0.72799999 -0.031910665 1.2501851e-38 291 265
-0.035690852 0.727 -0.03186683 1.2868827e-38 292 265
-0.034321502 0.72500002 -0.031779166 1.2223459e-38 293 265
-0.032959159 0.72299999 -0.031691495 1.2222023e-38 294 265
-0.031647664 0.722 -0.031647664 1.1945077e-38 295 265
-0.030381758 0.722 -0.031647664 1.2128392e-38 296 265
-0.029115854 0.722 -0.031647664 1.1852164e-38 297 265
-0.027849946 0.722 -0.031647664 1.1852529e-38 298 265
-0.026510401 0.72000003 -0.03156 1.1852529e-38 299 265
-0.025212931 0.71899998 -0.031516165 1.1852529e-38 300 265
-0.023952285 0.71899998 -0.031516165 1.1852529e-38 301 265
-0.022691639 0.71899998 -0.031516165 1.1944374e-38 302 265
-0.021430992 0.71899998 -0.031516165 1.2221319e-38 303 265
-0.020114239 0.71700001 -0.031428497 1.2313888e-38 304 265
-0.018857099 0.71700001 -0.031428497 1.2774506e-38 305 265
-0.017575413 0.71600002 -0.031384666 1.2867425e-38 306 265
-0.016274439 0.71399999 -0.031296998 1.3236566e-38 307 265
-0.015022559 0.71399999 -0.031296998 1.2595512e-38 308 265
-0.013751393 0.713 -0.031253166 1.2595512e-38 309 265
-0.012501267 0.713 -0.031253166 1.2593712e-38 310 265
-0.011251139 0.713 -0.031253166 1.2317123e-38 311 265
-0.0099729598 0.71100003 -0.031165501 1.2407153e-38 312 265
-0.0087263398 0.71100003 -0.031165501 1.2222761e-38 313 265
-0.0074797203 0.71100003 -0.031165501 1.1947244e-38 314 265
-0.0062330998 0.71100003 -0.031165501 1.1855048e-38 315 265
-0.0049864799 0.71100003 -0.031165501 1.2037276e-38 316 265
-0.0037345996 0.70999998 -0.031121666 1.1760687e-38 317 265
-0.0024897333 0.70999998 -0.031121666 1.1759966e-38 318 265
-0.0012448666 0.70999998 -0.031121666 1.1667772e-38 319 265
0 0.71100003 -0.031165501 1.166813e-38 320 265
0.00124662 0.71100003 -0.031165501 1.1852519e-38 321 265
0.0024932399 0.71100003 -0.031165501 1.1576654e-38 322 265
0.0037398601 0.71100003 -0.031165501 1.1760685e-38 323 265
0.0049864799 0.71100003 -0.031165501 1.1578093e-38 324 265
0.0062506334 0.713 -0.031253166 1.1578093e-38 325 265
0.0075007593 0.713 -0.031253166 1.1579172e-38 326 265
0.0087508867 0.713 -0.031253166 1.1486976e-38 327 265
0.01001504 0.71399999 -0.031296998 1.1395146e-38 328 265
0.01129848 0.71600002 -0.031384666 1.1487342e-38 329 265
0.012553867 0.71600002 -0.031384666 1.1669216e-38 330 265
0.013809253 0.71600002 -0.031384666 1.1484824e-38 331 265
0.01506464 0.71600002 -0.031384666 1.1301511e-38 332 265
0.016320027 0.71600002 -0.031384666 1.1669935e-38 333 265
0.017599959 0.71700001 -0.031428497 1.1210762e-38 334 265
0.018857099 0.71700001 -0.031428497 1.2132358e-38 335 265
0.020114239 0.71700001 -0.031428497 1.2885398e-38 336 265
-0.040845651 0.72799999 -0.033187091 1.61216e-38 288 266
-0.039569225 0.72799999 -0.033187091 1.1511818e-38 289 266
-0.038292799 0.72799999 -0.033187091 1.3241936e-38 290 266
-0.036965527 0.727 -0.033141505 1.2596566e-38 291 266
-0.035690852 0.727 -0.033141505 1.2685149e-38 292 266
-0.034321502 0.72500002 -0.033050332 1.2408204e-38 293 266
-0.032959159 0.72299999 -0.032959159 1.2406043e-38 294 266
-0.031647664 0.722 -0.032913569 1.2129101e-38 295 266
-0.030381758 0.722 -0.032913569 1.2128029e-38 296 266
-0.029115854 0.722 -0.032913569 1.2035474e-38 297 266
-0.027849946 0.722 -0.032913569 1.2035476e-38 298 266
-0.026510401 0.72000003 -0.0328224 1.2035476e-38 299 266
-0.025248 0.72000003 -0.0328224 1.1759969e-38 300 266
-0.023952285 0.71899998 -0.032776814 1.1852164e-38 301 266
-0.022691639 0.71899998 -0.032776814 1.1668866e-38 302 266
-0.021430992 0.71899998 -0.032776814 1.1945093e-38 303 266
-0.020114239 0.71700001 -0.032685637 1.1853273e-38 304 266
-0.018857099 0.71700001 -0.032685637 1.2222055e-38 305 266
-0.017575413 0.71600002 -0.032640055 1.2223503e-38 306 266
-0.016274439 0.71399999 -0.032548878 1.2407895e-38 307 266
-0.015022559 0.71399999 -0.032548878 1.2317854e-38 308 266
-0.01377068 0.71399999 -0.032548878 1.2225299e-38 309 266
-0.012501267 0.713 -0.032503292 1.2315683e-38 310 266
-0.011251139 0.713 -0.032503292 1.2131292e-38 311 266
-0.010001013 0.713 -0.032503292 1.2038723e-38 312 266
-0.0087508867 0.713 -0.032503292 1.2038723e-38 313 266
-0.0074797203 0.71100003 -0.032412119 1.1946878e-38 314 266
-0.0062330998 0.71100003 -0.032412119 1.1946878e-38 315 266
-0.0049864799 0.71100003 -0.032412119 1.1945796e-38 316 266
-0.0037345996 0.70999998 -0.032366529 1.1577372e-38 317 266
-0.0024897333 0.70999998 -0.032366529 1.1760324e-38 318 266
-0.0012448666 0.70999998 -0.032366529 1.1667772e-38 319 266
0 0.71100003 -0.032412119 1.1667772e-38 320 266
0.00124662 0.71100003 -0.032412119 1.1760324e-38 321 266
0.0024932399 0.71100003 -0.032412119 1.1484821e-38 322 266
0.0037398601 0.71100003 -0.032412119 1.1577375e-38 323 266
0.0050005065 0.713 -0.032503292 1.130223e-38 324 266
0.0062506334 0.713 -0.032503292 1.1394427e-38 325 266
0.0075007593 0.713 -0.032503292 1.130223e-38 326 266
0.0087508867 0.713 -0.032503292 1.1394427e-38 327 266
0.01001504 0.71399999 -0.032548878 1.1210759e-38 328 266
0.01129848 0.71600002 -0.032640055 1.1118562e-38 329 266
0.012553867 0.71600002 -0.032640055 1.1301158e-38 330 266
0.013809253 0.71600002 -0.032640055 1.1208963e-38 331 266
0.01506464 0.71600002 -0.032640055 1.1301877e-38 332 266
0.016320027 0.71600002 -0.032640055 1.1394074e-38 333 266
0.017599959 0.71700001 -0.032685637 1.1488786e-38 334 266
0.018857099 0.71700001 -0.032685637 1.2134156e-38 335 266
0.020198401 0.72000003 -0.0328224 1.2883597e-38 336 266
-0.039514873 0.727 -0.03441618 1.2802201e-38 289 267
-0.036965527 0.727 -0.03441618 1.2046632e-38 291 267
-0.035690852 0.727 -0.03441618 1.2780232e-38 292 267
-0.034321502 0.72500002 -0.034321502 1.1950471e-38 293 267
-0.033050332 0.72500002 -0.034321502 1.2316008e-38 294 267
-0.031647664 0.722 -0.034179479 1.203978e-38 295 267
-0.030381758 0.722 -0.034179479 1.2038345e-38 296 267
-0.029115854 0.722 -0.034179479 1.1762118e-38 297 267
-0.027849946 0.722 -0.034179479 1.1852884e-38 298 267
-0.026510401 0.72000003 -0.034084801 1.1760687e-38 299 267
-0.025212931 0.71899998 -0.03403746 1.1760687e-38 300 267
-0.023952285 0.71899998 -0.03403746 1.1852884e-38 301 267
-0.022691639 0.71899998 -0.03403746 1.1669572e-38 302 267
-0.021430992 0.71899998 -0.03403746 1.1761768e-38 303 267
-0.020114239 0.71700001 -0.033942781 1.2036923e-38 304 267
-0.018857099 0.71700001 -0.033942781 1.2221673e-38 305 267
-0.017575413 0.71600002 -0.03389544 1.2129843e-38 306 267
-0.016320027 0.71600002 -0.03389544 1.2314235e-38 307 267
-0.015022559 0.71399999 -0.033800758 1.2222041e-38 308 267
-0.01377068 0.71399999 -0.033800758 1.2222041e-38 309 267
-0.012501267 0.713 -0.033753417 1.2221319e-38 310 267
-0.011251139 0.713 -0.033753417 1.2221319e-38 311 267
-0.010001013 0.713 -0.033753417 1.2039079e-38 312 267
-0.0087263398 0.71100003 -0.033658739 1.2039079e-38 313 267
-0.0074797203 0.71100003 -0.033658739 1.1947597e-38 314 267
-0.0062330998 0.71100003 -0.033658739 1.1855401e-38 315 267
-0.0049864799 0.71100003 -0.033658739 1.185468e-38 316 267
-0.0037345996 0.70999998 -0.033611398 1.1578093e-38 317 267
-0.0024897333 0.70999998 -0.033611398 1.1761042e-38 318 267
-0.00124662 0.71100003 -0.033658739 1.1484818e-38 319 267
0 0.71100003 -0.033658739 1.1668489e-38 320 267
0.00124662 0.71100003 -0.033658739 1.1668489e-38 321 267
0.0024932399 0.71100003 -0.033658739 1.1484818e-38 322 267
0.0037398601 0.71100003 -0.033658739 1.1577012e-38 323 267
0.0050005065 0.713 -0.033753417 1.1209312e-38 324 267
0.0062506334 0.713 -0.033753417 1.1209312e-38 325 267
0.0075007593 0.713 -0.033753417 1.1209312e-38 326 267
0.0087631596 0.71399999 -0.033800758 1.1301864e-38 327 267
0.01001504 0.71399999 -0.033800758 1.1209316e-38 328 267
0.01129848 0.71600002 -0.03389544 1.1116761e-38 329 267
0.012553867 0.71600002 -0.03389544 1.1301155e-38 330 267
0.013828539 0.71700001 -0.033942781 1.1301155e-38 331 267
0.015085679 0.71700001 -0.033942781 1.1394427e-38 332 267
0.016342819 0.71700001 -0.033942781 1.1671014e-38 333 267
0.017649053 0.71899998 -0.03403746 1.1398746e-38 334 267
0.018909698 0.71899998 -0.03403746 1.2044115e-38 335 267
0.020198401 0.72000003 -0.034084801 1.2791034e-38 336 267
0.021460801 0.72000003 -0.034084801 1.6755446e-38 337 267
-0.035690852 0.727 -0.035690852 1.2779863e-38 292 268
-0.034321502 0.72500002 -0.035592668 1.2318525e-38 293 268
-0.033050332 0.72500002 -0.035592668 1.2408913e-38 294 268
-0.031691495 0.72299999 -0.035494477 1.2040136e-38 295 268
-0.030381758 0.722 -0.035445385 1.231349e-38 296 268
-0.029115854 0.722 -0.035445385 1.2221296e-38 297 268
-0.027849946 0.722 -0.035445385 1.2128745e-38 298 268
-0.026510401 0.72000003 -0.035347197 1.1944714e-38 299 268
-0.025212931 0.71899998 -0.035298105 1.1944358e-38 300 268
-0.023952285 0.71899998 -0.035298105 1.2128748e-38 301 268
-0.022691639 0.71899998 -0.035298105 1.1761765e-38 302 268
-0.021430992 0.71899998 -0.035298105 1.1761765e-38 303 268
-0.020114239 0.71700001 -0.035199918 1.1761415e-38 304 268
-0.018857099 0.71700001 -0.035199918 1.1945446e-38 305 268
-0.017575413 0.71600002 -0.035150826 1.1945096e-38 306 268
-0.016320027 0.71600002 -0.035150826 1.1945096e-38 307 268
-0.015022559 0.71399999 -0.035052639 1.2037294e-38 308 268
-0.01377068 0.71399999 -0.035052639 1.2037294e-38 309 268
-0.012501267 0.713 -0.035003547 1.1946528e-38 310 268
-0.011251139 0.713 -0.035003547 1.1946528e-38 311 268
-0.0099729598 0.71100003 -0.034905359 1.19476e-38 312 268
-0.0087263398 0.71100003 -0.034905359 1.1855404e-38 313 268
-0.0074797203 0.71100003 -0.034905359 1.167137e-38 314 268
-0.0062330998 0.71100003 -0.034905359 1.167137e-38 315 268
-0.0049864799 0.71100003 -0.034905359 1.1945796e-38 316 268
-0.0037398601 0.71100003 -0.034905359 1.1669569e-38 317 268
-0.0024932399 0.71100003 -0.034905359 1.1760324e-38 318 268
-0.00124662 0.71100003 -0.034905359 1.1575936e-38 319 268
0 0.71100003 -0.034905359 1.1575936e-38 320 268
0.00124662 0.71100003 -0.034905359 1.1575936e-38 321 268
0.0025002533 0.713 -0.035003547 1.1392983e-38 322 268
0.0037503797 0.713 -0.035003547 1.1392983e-38 323 268
0.0050005065 0.713 -0.035003547 1.1391906e-38 324 268
0.0062506334 0.713 -0.035003547 1.1391906e-38 325 268
0.0075007593 0.713 -0.035003547 1.1025645e-38 326 268
0.0087631596 0.71399999 -0.035052639 1.0933449e-38 327 268
0.01001504 0.71399999 -0.035052639 1.0933449e-38 328 268
0.01129848 0.71600002 -0.035150826 1.1025645e-38 329 268
0.012553867 0.71600002 -0.035150826 1.0934168e-38 330 268
0.013828539 0.71700001 -0.035199918 1.1118918e-38 331 268
0.015085679 0.71700001 -0.035199918 1.1212553e-38 332 268
0.016342819 0.71700001 -0.035199918 1.1396944e-38 333 268
0.017649053 0.71899998 -0.035298105 1.1400188e-38 334 268
0.018909698 0.71899998 -0.035298105 1.2229947e-38 335 268
0.020198401 0.72000003 -0.035347197 1.3158739e-38 336 268
0.021460801 0.72000003 -0.035347197 1.6846563e-38 337 268
-0.035690852 0.727 -0.036965527 1.2780232e-38 292 269
-0.03441618 0.727 -0.036965527 1.2134862e-38 293 269
-0.033050332 0.72500002 -0.036863834 1.2500049e-38 294 269
-0.031691495 0.72299999 -0.036762137 1.2223462e-38 295 269
-0.030381758 0.722 -0.03671129 1.2406051e-38 296 269
-0.029115854 0.722 -0.03671129 1.222202e-38 297 269
-0.027849946 0.722 -0.03671129 1.2129827e-38 298 269
-0.026584039 0.722 -0.03671129 1.2037632e-38 299 269
-0.025248 0.72000003 -0.036609601 1.2037632e-38 300 269
-0.023952285 0.71899998 -0.036558751 1.2037632e-38 301 269
-0.022691639 0.71899998 -0.036558751 1.1945077e-38 302 269
-0.021430992 0.71899998 -0.036558751 1.1945077e-38 303 269
-0.020170346 0.71899998 -0.036558751 1.194508e-38 304 269
-0.018857099 0.71700001 -0.036457058 1.194508e-38 305 269
-0.017575413 0.71600002 -0.036406212 1.1945083e-38 306 269
-0.016320027 0.71600002 -0.036406212 1.1945083e-38 307 269
-0.015022559 0.71399999 -0.036304519 1.1945083e-38 308 269
-0.01377068 0.71399999 -0.036304519 1.1945083e-38 309 269
-0.012501267 0.713 -0.036253672 1.1945802e-38 310 269
-0.011251139 0.713 -0.036253672 1.2037997e-38 311 269
-0.0099729598 0.71100003 -0.036151983 1.1854682e-38 312 269
-0.0087263398 0.71100003 -0.036151983 1.1762487e-38 313 269
-0.0074797203 0.71100003 -0.036151983 1.1762484e-38 314 269
-0.0062330998 0.71100003 -0.036151983 1.1670288e-38 315 269
-0.0049864799 0.71100003 -0.036151983 1.1669569e-38 316 269
-0.0037398601 0.71100003 -0.036151983 1.1577372e-38 317 269
-0.0024932399 0.71100003 -0.036151983 1.1667772e-38 318 269
-0.00124662 0.71100003 -0.036151983 1.1575577e-38 319 269
0 0.71100003 -0.036151983 1.1667054e-38 320 269
0.00124662 0.71100003 -0.036151983 1.1667054e-38 321 269
0.0025002533 0.713 -0.036253672 1.1392265e-38 322 269
0.0037503797 0.713 -0.036253672 1.1392265e-38 323 269
0.0050005065 0.713 -0.036253672 1.11164e-38 324 269
0.0062593995 0.71399999 -0.036304519 1.130043e-38 325 269
0.0075112795 0.71399999 -0.036304519 1.0933805e-38 326 269
0.0087631596 0.71399999 -0.036304519 1.0933805e-38 327 269
0.010043093 0.71600002 -0.036406212 1.084197e-38 328 269
0.01129848 0.71600002 -0.036406212 1.0934524e-38 329 269
0.0125714 0.71700001 -0.036457058 1.0843051e-38 330 269
0.013828539 0.71700001 -0.036457058 1.1027082e-38 331 269
0.015085679 0.71700001 -0.036457058 1.0936689e-38 332 269
0.016388407 0.71899998 -0.036558751 1.1489863e-38 333 269
0.017649053 0.71899998 -0.036558751 1.1491292e-38 334 269
0.018935999 0.72000003 -0.036609601 1.2412888e-38 335 269
0.020198401 0.72000003 -0.036609601 1.3621502e-38 336 269
0.021460801 0.72000003 -0.036609601 1.684835e-38 337 269
-0.03441618 0.727 -0.038240198 1.2592963e-38 293 270
-0.033050332 0.72500002 -0.038135 1.2592247e-38 294 270
-0.031691495 0.72299999 -0.038029801 1.231566e-38 295 270
-0.030381758 0.722 -0.0379772 1.2314936e-38 296 270
-0.029115854 0.722 -0.0379772 1.2222739e-38 297 270
-0.027849946 0.722 -0.0379772 1.222202e-38 298 270
-0.026584039 0.722 -0.0379772 1.222202e-38 299 270
-0.025248 0.72000003 -0.037871998 1.1947234e-38 300 270
-0.023952285 0.71899998 -0.037819397 1.1947234e-38 301 270
-0.022691639 0.71899998 -0.037819397 1.2128392e-38 302 270
-0.021430992 0.71899998 -0.037819397 1.2220588e-38 303 270
-0.020114239 0.71700001 -0.037714198 1.2128748e-38 304 270
-0.018857099 0.71700001 -0.037714198 1.2128748e-38 305 270
-0.017575413 0.71600002 -0.037661601 1.1945796e-38 306 270
-0.016320027 0.71600002 -0.037661601 1.1761765e-38 307 270
-0.015022559 0.71399999 -0.037556399 1.1945077e-38 308 270
-0.01377068 0.71399999 -0.037556399 1.1945077e-38 309 270
-0.012501267 0.713 -0.037503798 1.1852884e-38 310 270
-0.011251139 0.713 -0.037503798 1.194508e-38 311 270
-0.010001013 0.713 -0.037503798 1.194508e-38 312 270
-0.0087508867 0.713 -0.037503798 1.1852884e-38 313 270
-0.0074797203 0.71100003 -0.037398599 1.1852882e-38 314 270
-0.0062330998 0.71100003 -0.037398599 1.1760685e-38 315 270
-0.0049864799 0.71100003 -0.037398599 1.1760683e-38 316 270
-0.0037398601 0.71100003 -0.037398599 1.1576654e-38 317 270
-0.0024932399 0.71100003 -0.037398599 1.1575936e-38 318 270
-0.00124662 0.71100003 -0.037398599 1.1575936e-38 319 270
0 0.71100003 -0.037398599 1.1483383e-38 320 270
0.0012501266 0.713 -0.037503798 1.1483383e-38 321 270
0.0025002533 0.713 -0.037503798 1.1392983e-38 322 270
0.0037503797 0.713 -0.037503798 1.1392983e-38 323 270
0.0050075199 0.71399999 -0.037556399 1.130043e-38 324 270
0.0062593995 0.71399999 -0.037556399 1.11164e-38 325 270
0.0075112795 0.71399999 -0.037556399 1.0842328e-38 326 270
0.0087877065 0.71600002 -0.037661601 1.0934522e-38 327 270
0.010043093 0.71600002 -0.037661601 1.0843404e-38 328 270
0.01129848 0.71600002 -0.037661601 1.0843404e-38 329 270
0.0125714 0.71700001 -0.037714198 1.0843051e-38 330 270
0.013828539 0.71700001 -0.037714198 1.1119638e-38 331 270
0.015085679 0.71700001 -0.037714198 1.0845575e-38 332 270
0.016342819 0.71700001 -0.037714198 1.1306194e-38 333 270
0.017673599 0.72000003 -0.037871998 1.1122505e-38 334 270
0.018935999 0.72000003 -0.037871998 1.250544e-38 335 270
0.020254506 0.722 -0.0379772 1.4269386e-38 336 270
0.021520413 0.722 -0.0379772 1.6758668e-38 337 270
-0.03441618 0.727 -0.039514873 1.2685865e-38 293 271
-0.033050332 0.72500002 -0.039406165 1.2592954e-38 294 271
-0.031691495 0.72299999 -0.039297458 1.2500758e-38 295 271
-0.030423839 0.72299999 -0.039297458 1.2498603e-38 296 271
-0.029115854 0.722 -0.039243106 1.2406407e-38 297 271
-0.027849946 0.722 -0.039243106 1.2222739e-38 298 271
-0.026584039 0.722 -0.039243106 1.2222739e-38 299 271
-0.025248 0.72000003 -0.039134402 1.203943e-38 300 271
-0.0239856 0.72000003 -0.039134402 1.203943e-38 301 271
-0.022691639 0.71899998 -0.039080046 1.2038348e-38 302 271
-0.021430992 0.71899998 -0.039080046 1.2038348e-38 303 271
-0.020114239 0.71700001 -0.038971342 1.213018e-38 304 271
-0.018857099 0.71700001 -0.038971342 1.213018e-38 305 271
-0.017575413 0.71600002 -0.038916986 1.2130178e-38 306 271
-0.016320027 0.71600002 -0.038916986 1.1945789e-38 307 271
-0.01506464 0.71600002 -0.038916986 1.2128743e-38 308 271
-0.01377068 0.71399999 -0.038808275 1.1944713e-38 309 271
-0.012501267 0.713 -0.038753927 1.1944714e-38 310 271
-0.011251139 0.713 -0.038753927 1.1944714e-38 311 271
-0.010001013 0.713 -0.038753927 1.1853238e-38 312 271
-0.0087508867 0.713 -0.038753927 1.1760683e-38 313 271
-0.0075007593 0.713 -0.038753927 1.1760324e-38 314 271
-0.0062330998 0.71100003 -0.038645219 1.1760324e-38 315 271
-0.0049864799 0.71100003 -0.038645219 1.166813e-38 316 271
-0.0037398601 0.71100003 -0.038645219 1.1760324e-38 317 271
-0.0024932399 0.71100003 -0.038645219 1.1484818e-38 318 271
-0.0012501266 0.713 -0.038753927 1.1484818e-38 319 271
0 0.713 -0.038753927 1.1575936e-38 320 271
0.0012501266 0.713 -0.038753927 1.1575936e-38 321 271
0.0025002533 0.713 -0.038753927 1.1484818e-38 322 271
0.0037503797 0.713 -0.038753927 1.1484818e-38 323 271
0.0050075199 0.71399999 -0.038808275 1.120967e-38 324 271
0.0062593995 0.71399999 -0.038808275 1.120967e-38 325 271
0.0075112795 0.71399999 -0.038808275 1.0934522e-38 326 271
0.0087877065 0.71600002 -0.038916986 1.1027075e-38 327 271
0.010043093 0.71600002 -0.038916986 1.0751928e-38 328 271
0.01129848 0.71600002 -0.038916986 1.0751928e-38 329 271
0.0125714 0.71700001 -0.038971342 1.084377e-38 330 271
0.013828539 0.71700001 -0.038971342 1.1028522e-38 331 271
0.015085679 0.71700001 -0.038971342 1.0845935e-38 332 271
0.016342819 0.71700001 -0.038971342 1.1306913e-38 333 271
0.017673599 0.72000003 -0.039134402 1.1305096e-38 334 271
0.0189886 0.722 -0.039243106 1.3057173e-38 335 271
0.020254506 0.722 -0.039243106 1.4825797e-38 336 271
0.021520413 0.722 -0.039243106 1.6485677e-38 337 271
-0.035592668 0.72500002 -0.040677335 1.2688386e-38 292 272
-0.033050332 0.72500002 -0.040677335 1.2595472e-38 294 272
-0.031779166 0.72500002 -0.040677335 1.2042298e-38 295 272
-0.030423839 0.72299999 -0.040565118 1.2408209e-38 296 272
-0.029156178 0.72299999 -0.040565118 1.2223459e-38 297 272
-0.027849946 0.722 -0.040509012 1.2223459e-38 298 272
-0.026584039 0.722 -0.040509012 1.2223459e-38 299 272
-0.025318133 0.722 -0.040509012 1.2040143e-38 300 272
-0.0239856 0.72000003 -0.040396802 1.2132699e-38 301 272
-0.022723202 0.72000003 -0.040396802 1.2039424e-38 302 272
-0.021460801 0.72000003 -0.040396802 1.2039424e-38 303 272
-0.020170346 0.71899998 -0.040340692 1.2038348e-38 304 272
-0.018857099 0.71700001 -0.040228479 1.2130543e-38 305 272
-0.017575413 0.71600002 -0.040172372 1.2130543e-38 306 272
-0.016320027 0.71600002 -0.040172372 1.2038348e-38 307 272
-0.01506464 0.71600002 -0.040172372 1.213018e-38 308 272
-0.01377068 0.71399999 -0.040060159 1.2037626e-38 309 272
-0.012518799 0.71399999 -0.040060159 1.2037626e-38 310 272
-0.011251139 0.713 -0.040004052 1.194543e-38 311 272
-0.010001013 0.713 -0.040004052 1.1853238e-38 312 272
-0.0087508867 0.713 -0.040004052 1.1853238e-38 313 272
-0.0075007593 0.713 -0.040004052 1.1760683e-38 314 272
-0.0062506334 0.713 -0.040004052 1.1760683e-38 315 272
-0.0049864799 0.71100003 -0.039891839 1.1761042e-38 316 272
-0.0037398601 0.71100003 -0.039891839 1.1761042e-38 317 272
-0.0025002533 0.713 -0.040004052 1.1761401e-38 318 272
-0.0012501266 0.713 -0.040004052 1.1761401e-38 319 272
0 0.713 -0.040004052 1.1577371e-38 320 272
0.0012501266 0.713 -0.040004052 1.1577371e-38 321 272
0.0025002533 0.713 -0.040004052 1.1394417e-38 322 272
0.0037556398 0.71399999 -0.040060159 1.1394417e-38 323 272
0.0050215465 0.71600002 -0.040172372 1.1027075e-38 324 272
0.0062769335 0.71600002 -0.040172372 1.111927e-38 325 272
0.00753232 0.71600002 -0.040172372 1.0843763e-38 326 272
0.0087877065 0.71600002 -0.040172372 1.1027793e-38 327 272
0.010043093 0.71600002 -0.040172372 1.0661168e-38 328 272
0.01129848 0.71600002 -0.040172372 1.0568615e-38 329 272
0.0125714 0.71700001 -0.040228479 1.0660811e-38 330 272
0.013828539 0.71700001 -0.040228479 1.0937039e-38 331 272
0.015085679 0.71700001 -0.040228479 1.0938121e-38 332 272
0.016342819 0.71700001 -0.040228479 1.158349e-38 333 272
0.017673599 0.72000003 -0.040396802 1.1491993e-38 334 272
0.0189886 0.722 -0.040509012 1.3981275e-38 335 272
0.020254506 0.722 -0.040509012 1.5566236e-38 336 272
-0.033050332 0.72500002 -0.041948501 1.2870967e-38 294 273
-0.031779166 0.72500002 -0.041948501 1.259402e-38 295 273
-0.030508002 0.72500002 -0.041948501 1.2408204e-38 296 273
-0.029156178 0.72299999 -0.041832779 1.2316008e-38 297 273
-0.02788852 0.72299999 -0.041832779 1.2223814e-38 298 273
-0.026584039 0.722 -0.041774917 1.2039424e-38 299 273
-0.025318133 0.722 -0.041774917 1.2039427e-38 300 273
-0.0239856 0.72000003 -0.041659199 1.2039427e-38 301 273
-0.022723202 0.72000003 -0.041659199 1.1947234e-38 302 273
-0.021460801 0.72000003 -0.041659199 1.1947234e-38 303 273
-0.020170346 0.71899998 -0.041601337 1.2038351e-38 304 273
-0.018857099 0.71700001 -0.041485619 1.2038351e-38 305 273
-0.017575413 0.71600002 -0.041427758 1.2038351e-38 306 273
-0.016320027 0.71600002 -0.041427758 1.1945796e-38 307 273
-0.01506464 0.71600002 -0.041427758 1.2128745e-38 308 273
-0.013809253 0.71600002 -0.041427758 1.2128745e-38 309 273
-0.012518799 0.71399999 -0.041312039 1.194543e-38 310 273
-0.011266919 0.71399999 -0.041312039 1.1853236e-38 311 273
-0.01001504 0.71399999 -0.041312039 1.1669924e-38 312 273
-0.0087631596 0.71399999 -0.041312039 1.157773e-38 313 273
-0.0075007593 0.713 -0.041254178 1.1669924e-38 314 273
-0.0062506334 0.713 -0.041254178 1.1669924e-38 315 273
-0.0050005065 0.713 -0.041254178 1.1761042e-38 316 273
-0.0037503797 0.713 -0.041254178 1.1577012e-38 317 273
-0.0025002533 0.713 -0.041254178 1.1760683e-38 318 273
-0.0012501266 0.713 -0.041254178 1.1760683e-38 319 273
0 0.713 -0.041254178 1.1577371e-38 320 273
0.0012501266 0.713 -0.041254178 1.1577371e-38 321 273
0.0025002533 0.713 -0.041254178 1.1578088e-38 322 273
0.0037556398 0.71399999 -0.041312039 1.1578088e-38 323 273
0.0050215465 0.71600002 -0.041427758 1.1394417e-38 324 273
0.0062769335 0.71600002 -0.041427758 1.1394417e-38 325 273
0.00753232 0.71600002 -0.041427758 1.1119628e-38 326 273
0.0087877065 0.71600002 -0.041427758 1.1027075e-38 327 273
0.010043093 0.71600002 -0.041427758 1.0568974e-38 328 273
0.01131426 0.71700001 -0.041485619 1.0661168e-38 329 273
0.0125714 0.71700001 -0.041485619 1.0478219e-38 330 273
0.013828539 0.71700001 -0.041485619 1.0754446e-38 331 273
0.01506464 0.71600002 -0.041427758 1.0940642e-38 332 273
0.016320027 0.71600002 -0.041427758 1.140126e-38 333 273
0.017673599 0.72000003 -0.041659199 1.2232447e-38 334 273
0.0189886 0.722 -0.041774917 1.490612e-38 335 273
-0.03441618 0.727 -0.043338891 1.1501362e-38 293 274
-0.033141505 0.727 -0.043338891 1.2410355e-38 294 274
-0.03186683 0.727 -0.043338891 1.250255e-38 295 274
-0.030508002 0.72500002 -0.043219667 1.2317456e-38 296 274
-0.029156178 0.72299999 -0.043100435 1.2133064e-38 297 274
-0.02788852 0.72299999 -0.043100435 1.2223462e-38 298 274
-0.026584039 0.722 -0.043040827 1.2223462e-38 299 274
-0.025318133 0.722 -0.043040827 1.1947234e-38 300 274
-0.0239856 0.72000003 -0.042921603 1.1947234e-38 301 274
-0.022723202 0.72000003 -0.042921603 1.213019e-38 302 274
-0.021460801 0.72000003 -0.042921603 1.2037995e-38 303 274
-0.020198401 0.72000003 -0.042921603 1.2037279e-38 304 274
-0.018909698 0.71899998 -0.042861983 1.2037279e-38 305 274
-0.017599959 0.71700001 -0.042742759 1.2220591e-38 306 274
-0.016342819 0.71700001 -0.042742759 1.2128395e-38 307 274
