# .PCD v.7 - Point Cloud Data file format
FIELDS x y z rgb imX imY
SIZE 4 4 4 4 4 4
TYPE F F F F F F
COUNT 1 1 1 1 1 1
WIDTH 835
HEIGHT 1
VIEWPOINT 0 0 0 1 0 0 0
POINTS 835
DATA ascii
-0.0062857 0.71700001 -0.015085679 1.3050336e-38 315 252
-0.0050285598 0.71700001 -0.015085679 1.2957787e-38 316 252
-0.0037714199 0.71700001 -0.015085679 1.2865592e-38 317 252
-0.0025142799 0.71700001 -0.015085679 1.259045e-38 318 252
-0.00125714 0.71700001 -0.015085679 1.2682645e-38 319 252
0 0.71700001 -0.015085679 1.2224554e-38 320 252
0.00125714 0.71700001 -0.015085679 1.2224554e-38 321 252
0.0025212932 0.71899998 -0.01512776 1.185937e-38 322 252
0.0037819401 0.71899998 -0.01512776 1.2043762e-38 323 252
0.0050636264 0.722 -0.015190879 1.1952286e-38 324 252
0.0063295332 0.722 -0.015190879 1.2044481e-38 325 252
0.0076059597 0.72299999 -0.015211919 1.2044854e-38 326 252
0.0088736191 0.72299999 -0.015211919 1.1952658e-38 327 252
0.01014128 0.72299999 -0.015211919 1.1400576e-38 328 252
0.01140894 0.72299999 -0.015211919 1.1124348e-38 329 252
0.012676599 0.72299999 -0.015211919 1.1600089e-38 330 252
0.01394426 0.72299999 -0.015211919 1.5564501e-38 331 252
-0.039840993 0.73299998 -0.016707512 1.760251e-38 289 253
-0.038555797 0.73299998 -0.016707512 1.372381e-38 290 253
-0.037168913 0.73100001 -0.016661927 9.3906139e-39 291 253
-0.035838135 0.73000002 -0.016639132 1.3248432e-38 292 253
-0.034463517 0.72799999 -0.016593546 1.3986357e-38 293 253
-0.033187091 0.72799999 -0.016593546 1.4169297e-38 294 253
-0.031910665 0.72799999 -0.016593546 1.3708679e-38 295 253
-0.030592158 0.727 -0.016570752 1.3795825e-38 296 253
-0.029236834 0.72500002 -0.016525166 1.3150456e-38 297 253
-0.02788852 0.72299999 -0.01647958 1.3511683e-38 298 253
-0.026584039 0.722 -0.016456785 1.31429e-38 299 253
-0.025248 0.72000003 -0.0164112 1.3233654e-38 300 253
-0.0239856 0.72000003 -0.0164112 1.332585e-38 301 253
-0.022723202 0.72000003 -0.0164112 1.3050336e-38 302 253
-0.021460801 0.72000003 -0.0164112 1.3234367e-38 303 253
-0.020198401 0.72000003 -0.0164112 1.3233648e-38 304 253
-0.018909698 0.71899998 -0.016388407 1.3141453e-38 305 253
-0.017649053 0.71899998 -0.016388407 1.3233285e-38 306 253
-0.016342819 0.71700001 -0.016342819 1.3233285e-38 307 253
-0.015085679 0.71700001 -0.016342819 1.3416598e-38 308 253
-0.013828539 0.71700001 -0.016342819 1.3508793e-38 309 253
-0.0125714 0.71700001 -0.016342819 1.3418751e-38 310 253
-0.01131426 0.71700001 -0.016342819 1.3418751e-38 311 253
-0.010043093 0.71600002 -0.016320027 1.3694982e-38 312 253
-0.0087877065 0.71600002 -0.016320027 1.3418395e-38 313 253
-0.00753232 0.71600002 -0.016320027 1.3143251e-38 314 253
-0.0062769335 0.71600002 -0.016320027 1.3143251e-38 315 253
-0.0050215465 0.71600002 -0.016320027 1.295814e-38 316 253
-0.0037714199 0.71700001 -0.016342819 1.2773748e-38 317 253
-0.0025142799 0.71700001 -0.016342819 1.2590084e-38 318 253
-0.00125714 0.71700001 -0.016342819 1.2590084e-38 319 253
0 0.71700001 -0.016342819 1.231566e-38 320 253
0.00125714 0.71700001 -0.016342819 1.2407856e-38 321 253
0.0025142799 0.71700001 -0.016342819 1.19512e-38 322 253
0.0037819401 0.71899998 -0.016388407 1.2227428e-38 323 253
0.0050496003 0.72000003 -0.0164112 1.1953718e-38 324 253
0.0063120001 0.72000003 -0.0164112 1.1953718e-38 325 253
0.0075954394 0.722 -0.016456785 1.1953718e-38 326 253
0.0088736191 0.72299999 -0.01647958 1.2045913e-38 327 253
0.01014128 0.72299999 -0.01647958 1.2134879e-38 328 253
0.01140894 0.72299999 -0.01647958 1.1858651e-38 329 253
0.012676599 0.72299999 -0.01647958 1.0573336e-38 330 253
0.01394426 0.72299999 -0.01647958 1.3707988e-38 331 253
0.015211919 0.72299999 -0.01647958 1.5205795e-38 332 253
-0.039840993 0.73299998 -0.017992707 1.6772032e-38 289 254
-0.038555797 0.73299998 -0.017992707 1.2889377e-38 290 254
-0.037168913 0.73100001 -0.017943613 8.3721502e-39 291 254
-0.035838135 0.73000002 -0.017919067 1.3429586e-38 292 254
-0.034558199 0.73000002 -0.017919067 1.4996912e-38 293 254
-0.033187091 0.72799999 -0.017869972 1.4169297e-38 294 254
-0.031910665 0.72799999 -0.017869972 1.3523927e-38 295 254
-0.030592158 0.727 -0.017845426 1.3702189e-38 296 254
-0.029156178 0.72299999 -0.017747238 1.2964624e-38 297 254
-0.027849946 0.722 -0.017722692 1.3145055e-38 298 254
-0.026584039 0.722 -0.017722692 1.2868108e-38 299 254
-0.025248 0.72000003 -0.017673599 1.3234017e-38 300 254
-0.023952285 0.71899998 -0.017649053 1.295779e-38 301 254
-0.022691639 0.71899998 -0.017649053 1.2958509e-38 302 254
-0.021430992 0.71899998 -0.017649053 1.2958509e-38 303 254
-0.020170346 0.71899998 -0.017649053 1.3048904e-38 304 254
-0.018857099 0.71700001 -0.017599959 1.3048904e-38 305 254
-0.017599959 0.71700001 -0.017599959 1.3231852e-38 306 254
-0.016342819 0.71700001 -0.017599959 1.3139656e-38 307 254
-0.01506464 0.71600002 -0.017575413 1.2956708e-38 308 254
-0.013809253 0.71600002 -0.017575413 1.3048904e-38 309 254
-0.012553867 0.71600002 -0.017575413 1.295779e-38 310 254
-0.01129848 0.71600002 -0.017575413 1.295779e-38 311 254
-0.010043093 0.71600002 -0.017575413 1.3049983e-38 312 254
-0.0087877065 0.71600002 -0.017575413 1.3234373e-38 313 254
-0.00753232 0.71600002 -0.017575413 1.3051411e-38 314 254
-0.0062593995 0.71399999 -0.017526319 1.2958856e-38 315 254
-0.0050075199 0.71399999 -0.017526319 1.3141806e-38 316 254
-0.00376616 0.71600002 -0.017575413 1.2957415e-38 317 254
-0.0025107733 0.71600002 -0.017575413 1.2772673e-38 318 254
-0.0012553866 0.71600002 -0.017575413 1.2772673e-38 319 254
0 0.71600002 -0.017575413 1.2498254e-38 320 254
0.0012553866 0.71600002 -0.017575413 1.259045e-38 321 254
0.0025142799 0.71700001 -0.017599959 1.2132714e-38 322 254
0.0037714199 0.71700001 -0.017599959 1.2317105e-38 323 254
0.0050425865 0.71899998 -0.017649053 1.2135232e-38 324 254
0.0063120001 0.72000003 -0.017673599 1.2319623e-38 325 254
0.0075954394 0.722 -0.017722692 1.2044834e-38 326 254
0.0088736191 0.72299999 -0.017747238 1.213703e-38 327 254
0.01014128 0.72299999 -0.017747238 1.1953011e-38 328 254
0.01140894 0.72299999 -0.017747238 1.176862e-38 329 254
0.012676599 0.72299999 -0.017747238 1.0662288e-38 330 254
0.013924973 0.722 -0.017722692 1.1215462e-38 331 254
0.015190879 0.722 -0.017722692 1.3172807e-38 332 254
0.016456785 0.722 -0.017722692 1.732125e-38 333 254
-0.039895348 0.73400003 -0.019304199 1.5757521e-38 289 255
-0.038555797 0.73299998 -0.019277899 1.2332243e-38 290 255
-0.037168913 0.73100001 -0.019225299 8.6444182e-39 291 255
-0.035887226 0.73100001 -0.019225299 1.3243397e-38 292 255
-0.034558199 0.73000002 -0.019199001 1.444194e-38 293 255
-0.033187091 0.72799999 -0.0191464 1.4074953e-38 294 255
-0.03186683 0.727 -0.019120099 1.3429583e-38 295 255
-0.030508002 0.72500002 -0.0190675 1.3423097e-38 296 255
-0.029156178 0.72299999 -0.019014901 1.3054673e-38 297 255
-0.027849946 0.722 -0.0189886 1.314362e-38 298 255
-0.026510401 0.72000003 -0.018935999 1.3051423e-38 299 255
-0.025248 0.72000003 -0.018935999 1.286739e-38 300 255
-0.023952285 0.71899998 -0.018909698 1.2775194e-38 301 255
-0.022691639 0.71899998 -0.018909698 1.2957787e-38 302 255
-0.021430992 0.71899998 -0.018909698 1.2957787e-38 303 255
-0.020170346 0.71899998 -0.018909698 1.2958143e-38 304 255
-0.018857099 0.71700001 -0.018857099 1.2773392e-38 305 255
-0.017599959 0.71700001 -0.018857099 1.3048893e-38 306 255
-0.016342819 0.71700001 -0.018857099 1.2864144e-38 307 255
-0.01506464 0.71600002 -0.0188308 1.2864146e-38 308 255
-0.013809253 0.71600002 -0.0188308 1.277195e-38 309 255
-0.012553867 0.71600002 -0.0188308 1.295419e-38 310 255
-0.01129848 0.71600002 -0.0188308 1.295419e-38 311 255
-0.01001504 0.71399999 -0.018778199 1.2955269e-38 312 255
-0.0087631596 0.71399999 -0.018778199 1.31393e-38 313 255
-0.0075112795 0.71399999 -0.018778199 1.3050692e-38 314 255
-0.0062593995 0.71399999 -0.018778199 1.3234723e-38 315 255
-0.0050075199 0.71399999 -0.018778199 1.3051761e-38 316 255
-0.00376616 0.71600002 -0.0188308 1.2959567e-38 317 255
-0.0025107733 0.71600002 -0.0188308 1.2866298e-38 318 255
-0.0012553866 0.71600002 -0.0188308 1.2681549e-38 319 255
0 0.71600002 -0.0188308 1.2497887e-38 320 255
0.0012553866 0.71600002 -0.0188308 1.2497887e-38 321 255
0.0025107733 0.71600002 -0.0188308 1.2405701e-38 322 255
0.00376616 0.71600002 -0.0188308 1.2590452e-38 323 255
0.0050285598 0.71700001 -0.018857099 1.2132714e-38 324 255
0.0062857 0.71700001 -0.018857099 1.2317105e-38 325 255
0.0075743999 0.72000003 -0.018935999 1.204376e-38 326 255
0.0088613462 0.722 -0.0189886 1.204376e-38 327 255
0.010127253 0.722 -0.0189886 1.1954083e-38 328 255
0.01139316 0.722 -0.0189886 1.2046279e-38 329 255
0.012659066 0.722 -0.0189886 1.1400559e-38 330 255
0.013924973 0.722 -0.0189886 1.0847387e-38 331 255
0.015190879 0.722 -0.0189886 1.1505728e-38 332 255
0.016456785 0.722 -0.0189886 1.611551e-38 333 255
-0.041126184 0.73299998 -0.020563092 1.7323768e-38 288 256
-0.039840993 0.73299998 -0.020563092 1.5019236e-38 289 256
-0.038555797 0.73299998 -0.020563092 1.2144611e-38 290 256
-0.037270606 0.73299998 -0.020563092 8.9177653e-39 291 256
-0.035887226 0.73100001 -0.020506985 1.287282e-38 292 256
-0.034558199 0.73000002 -0.020478934 1.3794774e-38 293 256
-0.033187091 0.72799999 -0.020422826 1.370222e-38 294 256
-0.03186683 0.727 -0.020394772 1.3149405e-38 295 256
-0.030508002 0.72500002 -0.020338668 1.3237985e-38 296 256
-0.029156178 0.72299999 -0.020282559 1.2869204e-38 297 256
-0.027849946 0.722 -0.020254506 1.2960308e-38 298 256
-0.026510401 0.72000003 -0.020198401 1.2868111e-38 299 256
-0.025248 0.72000003 -0.020198401 1.3051777e-38 300 256
-0.023952285 0.71899998 -0.020170346 1.2867745e-38 301 256
-0.022691639 0.71899998 -0.020170346 1.2867745e-38 302 256
-0.021430992 0.71899998 -0.020170346 1.2867745e-38 303 256
-0.020114239 0.71700001 -0.020114239 1.2775547e-38 304 256
-0.018857099 0.71700001 -0.020114239 1.2683351e-38 305 256
-0.017599959 0.71700001 -0.020114239 1.2773748e-38 306 256
-0.016342819 0.71700001 -0.020114239 1.2681552e-38 307 256
-0.01506464 0.71600002 -0.020086186 1.2588284e-38 308 256
-0.013809253 0.71600002 -0.020086186 1.2496089e-38 309 256
-0.012553867 0.71600002 -0.020086186 1.2678329e-38 310 256
-0.011266919 0.71399999 -0.020030079 1.2678329e-38 311 256
-0.01001504 0.71399999 -0.020030079 1.2770881e-38 312 256
-0.0087631596 0.71399999 -0.020030079 1.2955272e-38 313 256
-0.0075112795 0.71399999 -0.020030079 1.2867014e-38 314 256
-0.0062506334 0.713 -0.020002026 1.314396e-38 315 256
-0.0050005065 0.713 -0.020002026 1.314539e-38 316 256
-0.0037556398 0.71399999 -0.020030079 1.3052837e-38 317 256
-0.0025037599 0.71399999 -0.020030079 1.3051402e-38 318 256
-0.00125188 0.71399999 -0.020030079 1.2774461e-38 319 256
0 0.71600002 -0.020086186 1.2590435e-38 320 256
0.00125188 0.71399999 -0.020030079 1.2405685e-38 321 256
0.0025037599 0.71399999 -0.020030079 1.2405338e-38 322 256
0.00376616 0.71600002 -0.020086186 1.2497534e-38 323 256
0.0050285598 0.71700001 -0.020114239 1.2315307e-38 324 256
0.0062857 0.71700001 -0.020114239 1.2407503e-38 325 256
0.0075638802 0.71899998 -0.020170346 1.2133793e-38 326 256
0.0088367993 0.72000003 -0.020198401 1.2410021e-38 327 256
0.010127253 0.722 -0.020254506 1.222851e-38 328 256
0.01139316 0.722 -0.020254506 1.2504736e-38 329 256
0.012659066 0.722 -0.020254506 1.1770418e-38 330 256
0.013924973 0.722 -0.020254506 1.1217244e-38 331 256
0.015190879 0.722 -0.020254506 1.0205633e-38 332 256
0.016456785 0.722 -0.020254506 1.5091641e-38 333 256
0.017722692 0.722 -0.020254506 1.6864592e-38 334 256
-0.042469237 0.73400003 -0.021878093 1.7601783e-38 287 257
-0.041182294 0.73400003 -0.021878093 1.7048613e-38 288 257
-0.039840993 0.73299998 -0.021848286 1.4098353e-38 289 257
-0.038555797 0.73299998 -0.021848286 1.223464e-38 290 257
-0.037168913 0.73100001 -0.021788673 9.4687713e-39 291 257
-0.035838135 0.73000002 -0.021758866 1.2686263e-38 292 257
-0.034558199 0.73000002 -0.021758866 1.3239078e-38 293 257
-0.033187091 0.72799999 -0.021699252 1.3145816e-38 294 257
-0.03186683 0.727 -0.021669446 1.2776674e-38 295 257
-0.030508002 0.72500002 -0.021609833 1.305037e-38 296 257
-0.029156178 0.72299999 -0.021550218 1.2866339e-38 297 257
-0.027849946 0.722 -0.021520413 1.2775562e-38 298 257
-0.026510401 0.72000003 -0.021460801 1.2867758e-38 299 257
-0.025212931 0.71899998 -0.021430992 1.2775913e-38 300 257
-0.023952285 0.71899998 -0.021430992 1.2868108e-38 301 257
-0.02262852 0.71700001 -0.021371379 1.2868462e-38 302 257
-0.021371379 0.71700001 -0.021371379 1.2960657e-38 303 257
-0.020114239 0.71700001 -0.021371379 1.2868459e-38 304 257
-0.018857099 0.71700001 -0.021371379 1.2684067e-38 305 257
-0.017599959 0.71700001 -0.021371379 1.2958856e-38 306 257
-0.016320027 0.71600002 -0.021341572 1.2774465e-38 307 257
-0.01506464 0.71600002 -0.021341572 1.2498237e-38 308 257
-0.01377068 0.71399999 -0.021281958 1.231349e-38 309 257
-0.012518799 0.71399999 -0.021281958 1.2495367e-38 310 257
-0.011251139 0.713 -0.021252153 1.2495367e-38 311 257
-0.010001013 0.713 -0.021252153 1.249537e-38 312 257
-0.0087508867 0.713 -0.021252153 1.2587566e-38 313 257
-0.0075007593 0.713 -0.021252153 1.2866661e-38 314 257
-0.0062506334 0.713 -0.021252153 1.3143606e-38 315 257
-0.0050005065 0.713 -0.021252153 1.3053914e-38 316 257
-0.0037503797 0.713 -0.021252153 1.2869166e-38 317 257
-0.0025002533 0.713 -0.021252153 1.305212e-38 318 257
-0.00125188 0.71399999 -0.021281958 1.2775178e-38 319 257
0 0.71399999 -0.021281958 1.2590431e-38 320 257
0.00125188 0.71399999 -0.021281958 1.2406043e-38 321 257
0.0025037599 0.71399999 -0.021281958 1.2405332e-38 322 257
0.0037556398 0.71399999 -0.021281958 1.2497887e-38 323 257
0.0050215465 0.71600002 -0.021341572 1.2039074e-38 324 257
0.0062769335 0.71600002 -0.021341572 1.231566e-38 325 257
0.0075428397 0.71700001 -0.021371379 1.2131995e-38 326 257
0.0088367993 0.72000003 -0.021460801 1.2316386e-38 327 257
0.010127253 0.722 -0.021520413 1.2134156e-38 328 257
0.01139316 0.722 -0.021520413 1.2318907e-38 329 257
0.012659066 0.722 -0.021520413 1.1953009e-38 330 257
0.013924973 0.722 -0.021520413 1.2045563e-38 331 257
0.015190879 0.722 -0.021520413 1.0016556e-38 332 257
0.016456785 0.722 -0.021520413 1.2413283e-38 333 257
0.017747238 0.72299999 -0.021550218 1.5665323e-38 334 257
-0.042469237 0.73400003 -0.023165042 1.7601783e-38 287 258
-0.041182294 0.73400003 -0.023165042 1.7048246e-38 288 258
-0.039840993 0.73299998 -0.023133477 1.3636649e-38 289 258
-0.038450599 0.73100001 -0.02307036 1.2324311e-38 290 258
-0.037168913 0.73100001 -0.02307036 9.9272257e-39 291 258
-0.035838135 0.73000002 -0.023038799 1.2684095e-38 292 258
-0.034463517 0.72799999 -0.022975679 1.2684095e-38 293 258
-0.033187091 0.72799999 -0.022975679 1.3049651e-38 294 258
-0.03186683 0.727 -0.022944121 1.2772705e-38 295 258
-0.030508002 0.72500002 -0.022880999 1.2771975e-38 296 258
-0.029156178 0.72299999 -0.02281788 1.2771975e-38 297 258
-0.027849946 0.722 -0.022786319 1.2589731e-38 298 258
-0.026510401 0.72000003 -0.022723202 1.2773762e-38 299 258
-0.025212931 0.71899998 -0.022691639 1.25926e-38 300 258
-0.023952285 0.71899998 -0.022691639 1.2684796e-38 301 258
-0.02262852 0.71700001 -0.02262852 1.2777712e-38 302 258
-0.021371379 0.71700001 -0.02262852 1.2777712e-38 303 258
-0.020114239 0.71700001 -0.02262852 1.2961027e-38 304 258
-0.018857099 0.71700001 -0.02262852 1.3053223e-38 305 258
-0.017599959 0.71700001 -0.02262852 1.2870629e-38 306 258
-0.016320027 0.71600002 -0.022596961 1.2870629e-38 307 258
-0.01506464 0.71600002 -0.022596961 1.2686235e-38 308 258
-0.01377068 0.71399999 -0.022533838 1.2225257e-38 309 258
-0.012518799 0.71399999 -0.022533838 1.2498607e-38 310 258
-0.011251139 0.713 -0.022502279 1.222202e-38 311 258
-0.0099729598 0.71100003 -0.022439159 1.249537e-38 312 258
-0.0087263398 0.71100003 -0.022439159 1.2587566e-38 313 258
-0.0074797203 0.71100003 -0.022439159 1.2773029e-38 314 258
-0.0062330998 0.71100003 -0.022439159 1.3141453e-38 315 258
-0.0049864799 0.71100003 -0.022439159 1.3144678e-38 316 258
-0.0037398601 0.71100003 -0.022439159 1.3052124e-38 317 258
-0.0025002533 0.713 -0.022502279 1.3051761e-38 318 258
-0.0012501266 0.713 -0.022502279 1.277482e-38 319 258
0 0.713 -0.022502279 1.2590433e-38 320 258
0.00124662 0.71100003 -0.022439159 1.2406043e-38 321 258
0.0024932399 0.71100003 -0.022439159 1.2406051e-38 322 258
0.0037398601 0.71100003 -0.022439159 1.2406051e-38 323 258
0.0050215465 0.71600002 -0.022596961 1.2222742e-38 324 258
0.0062769335 0.71600002 -0.022596961 1.2314939e-38 325 258
0.0075428397 0.71700001 -0.02262852 1.2223106e-38 326 258
0.0087999795 0.71700001 -0.02262852 1.231566e-38 327 258
0.010099201 0.72000003 -0.022723202 1.2224907e-38 328 258
0.011361601 0.72000003 -0.022723202 1.2317102e-38 329 258
0.012659066 0.722 -0.022786319 1.204376e-38 330 258
0.013924973 0.722 -0.022786319 1.2135955e-38 331 258
0.015190879 0.722 -0.022786319 1.1303689e-38 332 258
0.016456785 0.722 -0.022786319 1.1303689e-38 333 258
0.017747238 0.72299999 -0.02281788 1.4002558e-38 334 258
0.019014901 0.72299999 -0.02281788 1.6768785e-38 335 258
-0.042411376 0.73299998 -0.024418673 1.769326e-38 287 259
-0.041126184 0.73299998 -0.024418673 1.713936e-38 288 259
-0.039840993 0.73299998 -0.024418673 1.3267144e-38 289 259
-0.038450599 0.73100001 -0.024352046 1.2599453e-38 290 259
-0.037168913 0.73100001 -0.024352046 1.0571149e-38 291 259
-0.035838135 0.73000002 -0.024318734 1.2683011e-38 292 259
-0.034463517 0.72799999 -0.024252106 1.2683011e-38 293 259
-0.033141505 0.727 -0.024218792 1.2680145e-38 294 259
-0.031779166 0.72500002 -0.024152167 1.240356e-38 295 259
-0.030423839 0.72299999 -0.024085538 1.2495029e-38 296 259
-0.029115854 0.722 -0.024052227 1.2679779e-38 297 259
-0.027849946 0.722 -0.024052227 1.222167e-38 298 259
-0.026510401 0.72000003 -0.0239856 1.2590452e-38 299 259
-0.025212931 0.71899998 -0.023952285 1.2316739e-38 300 259
-0.023952285 0.71899998 -0.023952285 1.2685163e-38 301 259
-0.02262852 0.71700001 -0.02388566 1.2595121e-38 302 259
-0.021371379 0.71700001 -0.02388566 1.2963544e-38 303 259
-0.020114239 0.71700001 -0.02388566 1.2964977e-38 304 259
-0.018857099 0.71700001 -0.02388566 1.3057173e-38 305 259
-0.017575413 0.71600002 -0.023852346 1.3059339e-38 306 259
-0.016320027 0.71600002 -0.023852346 1.2874948e-38 307 259
-0.015022559 0.71399999 -0.02378572 1.2872441e-38 308 259
-0.01377068 0.71399999 -0.02378572 1.2411822e-38 309 259
-0.012518799 0.71399999 -0.02378572 1.2868111e-38 310 259
-0.011251139 0.713 -0.023752406 1.2407134e-38 311 259
-0.0099729598 0.71100003 -0.023685781 1.268048e-38 312 259
-0.0087263398 0.71100003 -0.023685781 1.2496089e-38 313 259
-0.0074797203 0.71100003 -0.023685781 1.2497534e-38 314 259
-0.0062330998 0.71100003 -0.023685781 1.2773762e-38 315 259
-0.0049864799 0.71100003 -0.023685781 1.2775194e-38 316 259
-0.0037398601 0.71100003 -0.023685781 1.286739e-38 317 259
-0.0024932399 0.71100003 -0.023685781 1.27759e-38 318 259
-0.00124662 0.71100003 -0.023685781 1.259115e-38 319 259
0 0.71100003 -0.023685781 1.2590433e-38 320 259
0.00124662 0.71100003 -0.023685781 1.2498237e-38 321 259
0.0024932399 0.71100003 -0.023685781 1.2406404e-38 322 259
0.0037398601 0.71100003 -0.023685781 1.2406404e-38 323 259
0.0049864799 0.71100003 -0.023685781 1.2223459e-38 324 259
0.0062330998 0.71100003 -0.023685781 1.2039427e-38 325 259
0.0075007593 0.713 -0.023752406 1.2223106e-38 326 259
0.0087508867 0.713 -0.023752406 1.2223106e-38 327 259
0.01005712 0.71700001 -0.02388566 1.2132711e-38 328 259
0.01131426 0.71700001 -0.02388566 1.2224907e-38 329 259
0.0125714 0.71700001 -0.02388566 1.2134159e-38 330 259
0.013867113 0.71899998 -0.023952285 1.2134159e-38 331 259
0.0151488 0.72000003 -0.0239856 1.1488439e-38 332 259
0.0164112 0.72000003 -0.0239856 1.084307e-38 333 259
0.017673599 0.72000003 -0.0239856 1.270714e-38 334 259
0.019014901 0.72299999 -0.024085538 1.6302769e-38 335 259
-0.042411376 0.73299998 -0.025703866 1.7693262e-38 287 260
-0.041126184 0.73299998 -0.025703866 1.7138644e-38 288 260
-0.039840993 0.73299998 -0.025703866 1.3081677e-38 289 260
-0.038555797 0.73299998 -0.025703866 1.3059356e-38 290 260
-0.037168913 0.73100001 -0.025633732 1.0938855e-38 291 260
-0.035838135 0.73000002 -0.025598666 1.2592603e-38 292 260
-0.034463517 0.72799999 -0.025528532 1.2223462e-38 293 260
-0.033141505 0.727 -0.025493465 1.258865e-38 294 260
-0.031691495 0.72299999 -0.025353199 1.2219869e-38 295 260
-0.030423839 0.72299999 -0.025353199 1.2586134e-38 296 260
-0.029115854 0.722 -0.025318133 1.2678329e-38 297 260
-0.027849946 0.722 -0.025318133 1.2313137e-38 298 260
-0.026510401 0.72000003 -0.025248 1.2313137e-38 299 260
-0.025212931 0.71899998 -0.025212931 1.2499686e-38 300 260
-0.023952285 0.71899998 -0.025212931 1.2775913e-38 301 260
-0.02262852 0.71700001 -0.0251428 1.2686964e-38 302 260
-0.021371379 0.71700001 -0.0251428 1.3147942e-38 303 260
-0.020114239 0.71700001 -0.0251428 1.2967161e-38 304 260
-0.018857099 0.71700001 -0.0251428 1.361253e-38 305 260
-0.017575413 0.71600002 -0.025107734 1.3340632e-38 306 260
-0.016274439 0.71399999 -0.025037598 1.3432827e-38 307 260
-0.015022559 0.71399999 -0.025037598 1.3433183e-38 308 260
-0.013751393 0.713 -0.025002534 1.3156236e-38 309 260
-0.012501267 0.713 -0.025002534 1.3519967e-38 310 260
-0.011251139 0.713 -0.025002534 1.2597652e-38 311 260
-0.0099729598 0.71100003 -0.024932399 1.2684443e-38 312 260
-0.0087263398 0.71100003 -0.024932399 1.1946878e-38 313 260
-0.0074797203 0.71100003 -0.024932399 1.2771241e-38 314 260
-0.0062330998 0.71100003 -0.024932399 1.2955991e-38 315 260
-0.0049864799 0.71100003 -0.024932399 1.2773392e-38 316 260
-0.0037398601 0.71100003 -0.024932399 1.2865948e-38 317 260
-0.0024932399 0.71100003 -0.024932399 1.2774112e-38 318 260
-0.00124662 0.71100003 -0.024932399 1.259008e-38 319 260
0 0.71100003 -0.024932399 1.2497881e-38 320 260
0.00124662 0.71100003 -0.024932399 1.2497881e-38 321 260
0.0024932399 0.71100003 -0.024932399 1.2223448e-38 322 260
0.0037398601 0.71100003 -0.024932399 1.2315642e-38 323 260
0.0049864799 0.71100003 -0.024932399 1.2039777e-38 324 260
0.0062330998 0.71100003 -0.024932399 1.2039777e-38 325 260
0.0075007593 0.713 -0.025002534 1.2039427e-38 326 260
0.0087508867 0.713 -0.025002534 1.2039427e-38 327 260
0.01001504 0.71399999 -0.025037598 1.2040869e-38 328 260
0.01129848 0.71600002 -0.025107734 1.2133064e-38 329 260
0.012553867 0.71600002 -0.025107734 1.2042311e-38 330 260
0.013867113 0.71899998 -0.025212931 1.2042311e-38 331 260
0.0151488 0.72000003 -0.025248 1.1767171e-38 332 260
0.0164112 0.72000003 -0.025248 1.1121802e-38 333 260
0.017673599 0.72000003 -0.025248 1.1408842e-38 334 260
0.018935999 0.72000003 -0.025248 1.6018624e-38 335 260
-0.042469237 0.73400003 -0.02702588 1.7417396e-38 287 261
-0.041182294 0.73400003 -0.02702588 1.686278e-38 288 261
-0.039840993 0.73299998 -0.026989058 1.2898368e-38 289 261
-0.038555797 0.73299998 -0.026989058 1.2968595e-38 290 261
-0.037118066 0.73000002 -0.026878599 1.0847737e-38 291 261
-0.035739943 0.72799999 -0.026804959 1.2499686e-38 292 261
-0.03441618 0.727 -0.026768139 1.2314936e-38 293 261
-0.033141505 0.727 -0.026768139 1.2404972e-38 294 261
-0.031691495 0.72299999 -0.026620859 1.2220222e-38 295 261
-0.030381758 0.722 -0.026584039 1.2310265e-38 296 261
-0.029115854 0.722 -0.026584039 1.2402821e-38 297 261
-0.027849946 0.722 -0.026584039 1.1945083e-38 298 261
-0.026510401 0.72000003 -0.026510401 1.2129474e-38 299 261
-0.025212931 0.71899998 -0.02647358 1.2038723e-38 300 261
-0.023952285 0.71899998 -0.02647358 1.2591897e-38 301 261
-0.02262852 0.71700001 -0.02639994 1.2595137e-38 302 261
-0.021371379 0.71700001 -0.02639994 1.3056116e-38 303 261
-0.020114239 0.71700001 -0.02639994 1.2969324e-38 304 261
-0.0188308 0.71600002 -0.026363119 1.3799445e-38 305 261
-0.017575413 0.71600002 -0.026363119 1.3342432e-38 306 261
-0.016274439 0.71399999 -0.026289478 1.3803411e-38 307 261
-0.015022559 0.71399999 -0.026289478 1.3988521e-38 308 261
-0.013751393 0.713 -0.026252659 1.3988521e-38 309 261
-0.012501267 0.713 -0.026252659 1.4169667e-38 310 261
-0.011251139 0.713 -0.026252659 1.3155873e-38 311 261
-0.0099729598 0.71100003 -0.026179021 1.3240503e-38 312 261
-0.0087263398 0.71100003 -0.026179021 1.1949765e-38 313 261
-0.0074797203 0.71100003 -0.026179021 1.2589733e-38 314 261
-0.0062330998 0.71100003 -0.026179021 1.2312786e-38 315 261
-0.0049794666 0.70999998 -0.026142199 1.258865e-38 316 261
-0.0037345996 0.70999998 -0.026142199 1.2680846e-38 317 261
-0.0024897333 0.70999998 -0.026142199 1.2497531e-38 318 261
-0.00124662 0.71100003 -0.026179021 1.2497531e-38 319 261
0 0.71100003 -0.026179021 1.2405688e-38 320 261
0.00124662 0.71100003 -0.026179021 1.2405688e-38 321 261
0.0024932399 0.71100003 -0.026179021 1.2406404e-38 322 261
0.0037398601 0.71100003 -0.026179021 1.2406404e-38 323 261
0.0049864799 0.71100003 -0.026179021 1.2039424e-38 324 261
0.0062330998 0.71100003 -0.026179021 1.1947228e-38 325 261
0.0075007593 0.713 -0.026252659 1.203943e-38 326 261
0.0087508867 0.713 -0.026252659 1.203943e-38 327 261
0.01001504 0.71399999 -0.026289478 1.19476e-38 328 261
0.01129848 0.71600002 -0.026363119 1.2039797e-38 329 261
0.012553867 0.71600002 -0.026363119 1.1949043e-38 330 261
0.013828539 0.71700001 -0.02639994 1.1949043e-38 331 261
0.01512776 0.71899998 -0.02647358 1.1766452e-38 332 261
0.016388407 0.71899998 -0.02647358 1.1305474e-38 333 261
0.017649053 0.71899998 -0.02647358 1.0943176e-38 334 261
0.018909698 0.71899998 -0.02647358 1.5184174e-38 335 261
-0.042469237 0.73400003 -0.028312827 1.769326e-38 287 262
-0.041182294 0.73400003 -0.028312827 1.686313e-38 288 262
-0.039840993 0.73299998 -0.028274251 1.2898718e-38 289 262
-0.038555797 0.73299998 -0.028274251 1.2970028e-38 290 262
-0.037118066 0.73000002 -0.028158534 1.1218671e-38 291 262
-0.035739943 0.72799999 -0.028081384 1.2685512e-38 292 262
-0.03441618 0.727 -0.028042812 1.2040143e-38 293 262
-0.033050332 0.72500002 -0.027965667 1.2312774e-38 294 262
-0.031691495 0.72299999 -0.02788852 1.2035831e-38 295 262
-0.030381758 0.722 -0.027849946 1.2127308e-38 296 262
-0.029115854 0.722 -0.027849946 1.2127308e-38 297 262
-0.027849946 0.722 -0.027849946 1.1944714e-38 298 262
-0.026510401 0.72000003 -0.027772799 1.1944714e-38 299 262
-0.025212931 0.71899998 -0.027734226 1.2037995e-38 300 262
-0.023952285 0.71899998 -0.027734226 1.2314942e-38 301 262
-0.02262852 0.71700001 -0.027657079 1.2408948e-38 302 262
-0.021371379 0.71700001 -0.027657079 1.3146873e-38 303 262
-0.020114239 0.71700001 -0.027657079 1.315192e-38 304 262
-0.0188308 0.71600002 -0.027618507 1.3889485e-38 305 262
-0.017575413 0.71600002 -0.027618507 1.343283e-38 306 262
-0.016274439 0.71399999 -0.02754136 1.3986004e-38 307 262
-0.015001519 0.713 -0.027502786 1.3805927e-38 308 262
-0.013751393 0.713 -0.027502786 1.4082516e-38 309 262
-0.0124662 0.71100003 -0.027425639 1.4082869e-38 310 262
-0.01121958 0.71100003 -0.027425639 1.3621531e-38 311 262
-0.0099729598 0.71100003 -0.027425639 1.3522135e-38 312 262
-0.0087263398 0.71100003 -0.027425639 1.1493472e-38 313 262
-0.0074797203 0.71100003 -0.027425639 1.2497904e-38 314 262
-0.0062243328 0.70999998 -0.027387066 1.2129121e-38 315 262
-0.0049794666 0.70999998 -0.027387066 1.2403537e-38 316 262
-0.0037345996 0.70999998 -0.027387066 1.2495733e-38 317 262
-0.0024897333 0.70999998 -0.027387066 1.2312418e-38 318 262
-0.0012448666 0.70999998 -0.027387066 1.2404972e-38 319 262
0 0.70999998 -0.027387066 1.2312421e-38 320 262
0.0012448666 0.70999998 -0.027387066 1.2312421e-38 321 262
0.0024897333 0.70999998 -0.027387066 1.231314e-38 322 262
0.0037398601 0.71100003 -0.027425639 1.2405335e-38 323 262
0.0049864799 0.71100003 -0.027425639 1.1947231e-38 324 262
0.0062330998 0.71100003 -0.027425639 1.1855035e-38 325 262
0.0075007593 0.713 -0.027502786 1.2130543e-38 326 262
0.0087508867 0.713 -0.027502786 1.2130543e-38 327 262
0.01001504 0.71399999 -0.02754136 1.1946878e-38 328 262
0.01129848 0.71600002 -0.027618507 1.2039074e-38 329 262
0.012553867 0.71600002 -0.027618507 1.1856482e-38 330 262
0.013828539 0.71700001 -0.027657079 1.1764285e-38 331 262
0.01512776 0.71899998 -0.027734226 1.1672452e-38 332 262
0.016388407 0.71899998 -0.027734226 1.1304029e-38 333 262
0.017649053 0.71899998 -0.027734226 1.0938134e-38 334 262
0.018909698 0.71899998 -0.027734226 1.4718154e-38 335 262
-0.042469237 0.73400003 -0.029599773 1.7508868e-38 287 263
-0.041182294 0.73400003 -0.029599773 1.7046443e-38 288 263
-0.039895348 0.73400003 -0.029599773 1.3358976e-38 289 263
-0.038555797 0.73299998 -0.029559445 1.3430287e-38 290 263
-0.037016369 0.72799999 -0.029357811 1.167857e-38 291 263
-0.035739943 0.72799999 -0.029357811 1.2686588e-38 292 263
-0.034463517 0.72799999 -0.029357811 1.1857186e-38 293 263
-0.033050332 0.72500002 -0.029236834 1.2312772e-38 294 263
-0.031691495 0.72299999 -0.029156178 1.2128384e-38 295 263
-0.030381758 0.722 -0.029115854 1.2035831e-38 296 263
-0.029115854 0.722 -0.029115854 1.2035831e-38 297 263
-0.027849946 0.722 -0.029115854 1.1852519e-38 298 263
-0.026510401 0.72000003 -0.029035201 1.1852519e-38 299 263
-0.025212931 0.71899998 -0.028994869 1.1852884e-38 300 263
-0.023952285 0.71899998 -0.028994869 1.2129471e-38 301 263
-0.02262852 0.71700001 -0.028914221 1.2407506e-38 302 263
-0.021371379 0.71700001 -0.028914221 1.3145071e-38 303 263
-0.020114239 0.71700001 -0.028914221 1.2690942e-38 304 263
-0.0188308 0.71600002 -0.028873893 1.3244116e-38 305 263
-0.017575413 0.71600002 -0.028873893 1.3245568e-38 306 263
-0.016274439 0.71399999 -0.028793238 1.3706186e-38 307 263
-0.015001519 0.713 -0.028752912 1.370906e-38 308 263
-0.013751393 0.713 -0.028752912 1.3801255e-38 309 263
-0.0124662 0.71100003 -0.028672259 1.3801609e-38 310 263
-0.01121958 0.71100003 -0.028672259 1.3801609e-38 311 263
-0.0099729598 0.71100003 -0.028672259 1.3431381e-38 312 263
-0.0087263398 0.71100003 -0.028672259 1.1495273e-38 313 263
-0.0074797203 0.71100003 -0.028672259 1.2498627e-38 314 263
-0.0062243328 0.70999998 -0.028631933 1.2037647e-38 315 263
-0.0049794666 0.70999998 -0.028631933 1.2310986e-38 316 263
-0.0037345996 0.70999998 -0.028631933 1.2310986e-38 317 263
-0.0024897333 0.70999998 -0.028631933 1.2128745e-38 318 263
-0.0012448666 0.70999998 -0.028631933 1.2128745e-38 319 263
0 0.70999998 -0.028631933 1.2128027e-38 320 263
0.0012448666 0.70999998 -0.028631933 1.2128027e-38 321 263
0.0024897333 0.70999998 -0.028631933 1.2128745e-38 322 263
0.0037398601 0.71100003 -0.028672259 1.2313137e-38 323 263
0.0049864799 0.71100003 -0.028672259 1.2038348e-38 324 263
0.0062330998 0.71100003 -0.028672259 1.2038348e-38 325 263
0.0075007593 0.713 -0.028752912 1.185468e-38 326 263
0.0087508867 0.713 -0.028752912 1.185468e-38 327 263
0.010001013 0.713 -0.028752912 1.1855398e-38 328 263
0.011266919 0.71399999 -0.028793238 1.1855398e-38 329 263
0.012553867 0.71600002 -0.028873893 1.1855398e-38 330 263
0.013809253 0.71600002 -0.028873893 1.1671367e-38 331 263
0.015085679 0.71700001 -0.028914221 1.1487342e-38 332 263
0.016342819 0.71700001 -0.028914221 1.1487342e-38 333 263
0.017649053 0.71899998 -0.028994869 1.0844137e-38 334 263
0.018909698 0.71899998 -0.028994869 1.3702561e-38 335 263
-0.041182294 0.73400003 -0.030886721 1.6955326e-38 288 264
-0.039895348 0.73400003 -0.030886721 1.3636283e-38 289 264
-0.038555797 0.73299998 -0.030844638 1.361648e-38 290 264
-0.037016369 0.72799999 -0.030634239 1.1680372e-38 291 264
-0.035739943 0.72799999 -0.030634239 1.2963175e-38 292 264
-0.03441618 0.727 -0.030592158 1.2133415e-38 293 264
-0.033050332 0.72500002 -0.030508002 1.2313849e-38 294 264
-0.031691495 0.72299999 -0.030423839 1.212946e-38 295 264
-0.030381758 0.722 -0.030381758 1.2128384e-38 296 264
-0.029115854 0.722 -0.030381758 1.203619e-38 297 264
-0.027849946 0.722 -0.030381758 1.1943637e-38 298 264
-0.026510401 0.72000003 -0.0302976 1.1943637e-38 299 264
-0.025212931 0.71899998 -0.030255521 1.1852161e-38 300 264
-0.023952285 0.71899998 -0.030255521 1.1944358e-38 301 264
-0.02262852 0.71700001 -0.030171359 1.2222038e-38 302 264
-0.021371379 0.71700001 -0.030171359 1.2775212e-38 303 264
-0.020086186 0.71600002 -0.03012928 1.2411481e-38 304 264
-0.0188308 0.71600002 -0.03012928 1.2780624e-38 305 264
-0.017526319 0.71399999 -0.030045118 1.30583e-38 306 264
-0.016251646 0.713 -0.030003037 1.3519276e-38 307 264
-0.015001519 0.713 -0.030003037 1.3428514e-38 308 264
-0.013751393 0.713 -0.030003037 1.3428514e-38 309 264
-0.0124662 0.71100003 -0.029918881 1.3337035e-38 310 264
-0.01121958 0.71100003 -0.029918881 1.3337035e-38 311 264
-0.0099729598 0.71100003 -0.029918881 1.3153355e-38 312 264
-0.0087263398 0.71100003 -0.029918881 1.2046649e-38 313 264
-0.0074691991 0.70999998 -0.029876797 1.259225e-38 314 264
-0.0062243328 0.70999998 -0.029876797 1.1946881e-38 315 264
-0.0049794666 0.70999998 -0.029876797 1.2128027e-38 316 264
-0.0037345996 0.70999998 -0.029876797 1.2035831e-38 317 264
-0.0024897333 0.70999998 -0.029876797 1.1852519e-38 318 264
-0.0012448666 0.70999998 -0.029876797 1.1852519e-38 319 264
0 0.70999998 -0.029876797 1.1944358e-38 320 264
0.0012448666 0.70999998 -0.029876797 1.1944358e-38 321 264
0.0024897333 0.70999998 -0.029876797 1.1945077e-38 322 264
0.0037345996 0.70999998 -0.029876797 1.2037632e-38 323 264
0.0049864799 0.71100003 -0.029918881 1.1762484e-38 324 264
0.0062330998 0.71100003 -0.029918881 1.185468e-38 325 264
0.0074797203 0.71100003 -0.029918881 1.185468e-38 326 264
0.0087263398 0.71100003 -0.029918881 1.1947234e-38 327 264
0.010001013 0.713 -0.030003037 1.1579891e-38 328 264
0.011266919 0.71399999 -0.030045118 1.1579891e-38 329 264
0.012518799 0.71399999 -0.030045118 1.1762484e-38 330 264
0.013809253 0.71600002 -0.03012928 1.1670288e-38 331 264
0.015085679 0.71700001 -0.030171359 1.139479e-38 332 264
0.016342819 0.71700001 -0.030171359 1.157954e-38 333 264
0.017599959 0.71700001 -0.030171359 1.1028537e-38 334 264
0.018909698 0.71899998 -0.030255521 1.351746e-38 335 264
0.020170346 0.71899998 -0.030255521 1.4831583e-38 336 264
-0.040004052 0.736 -0.032261331 1.455788e-38 289 265
-0.038608398 0.73400003 -0.032173667 1.3711193e-38 290 265
-0.037016369 0.72799999 -0.031910665 1.1406302e-38 291 265
-0.035739943 0.72799999 -0.031910665 1.2965696e-38 292 265
-0.03441618 0.727 -0.03186683 1.1859349e-38 293 265
-0.032959159 0.72299999 -0.031691495 1.24986e-38 294 265
-0.031691495 0.72299999 -0.031691495 1.2130178e-38 295 265
-0.030381758 0.722 -0.031647664 1.2037626e-38 296 265
-0.029115854 0.722 -0.031647664 1.1853236e-38 297 265
-0.027849946 0.722 -0.031647664 1.1852161e-38 298 265
-0.026510401 0.72000003 -0.03156 1.1759966e-38 299 265
-0.025248 0.72000003 -0.03156 1.2035474e-38 300 265
-0.023952285 0.71899998 -0.031516165 1.2035474e-38 301 265
-0.022596961 0.71600002 -0.031384666 1.2037279e-38 302 265
-0.021341572 0.71600002 -0.031384666 1.2405701e-38 303 265
-0.020086186 0.71600002 -0.031384666 1.2499348e-38 304 265
-0.0188308 0.71600002 -0.031384666 1.3052522e-38 305 265
-0.017526319 0.71399999 -0.031296998 1.2686626e-38 306 265
-0.016251646 0.713 -0.031253166 1.2778822e-38 307 265
-0.015001519 0.713 -0.031253166 1.2871378e-38 308 265
-0.01371282 0.71100003 -0.031165501 1.2963573e-38 309 265
-0.0124662 0.71100003 -0.031165501 1.278098e-38 310 265
-0.01121958 0.71100003 -0.031165501 1.2688425e-38 311 265
-0.0099729598 0.71100003 -0.031165501 1.2964292e-38 312 265
-0.0087263398 0.71100003 -0.031165501 1.2411118e-38 313 265
-0.0074691991 0.70999998 -0.031121666 1.240715e-38 314 265
-0.0062243328 0.70999998 -0.031121666 1.194653e-38 315 265
-0.0049794666 0.70999998 -0.031121666 1.2128029e-38 316 265
-0.0037345996 0.70999998 -0.031121666 1.1943278e-38 317 265
-0.0024897333 0.70999998 -0.031121666 1.1759607e-38 318 265
-0.0012448666 0.70999998 -0.031121666 1.1943637e-38 319 265
0 0.70999998 -0.031121666 1.1760324e-38 320 265
0.0012448666 0.70999998 -0.031121666 1.1852519e-38 321 265
0.0024897333 0.70999998 -0.031121666 1.1853238e-38 322 265
0.0037345996 0.70999998 -0.031121666 1.1945433e-38 323 265
0.0049864799 0.71100003 -0.031165501 1.1670285e-38 324 265
0.0062330998 0.71100003 -0.031165501 1.176284e-38 325 265
0.0074797203 0.71100003 -0.031165501 1.1671723e-38 326 265
0.0087263398 0.71100003 -0.031165501 1.1671723e-38 327 265
0.010001013 0.713 -0.031253166 1.1579525e-38 328 265
0.011266919 0.71399999 -0.031296998 1.1487329e-38 329 265
0.012518799 0.71399999 -0.031296998 1.157773e-38 330 265
0.013809253 0.71600002 -0.031384666 1.1485535e-38 331 265
0.01506464 0.71600002 -0.031384666 1.1393707e-38 332 265
0.016320027 0.71600002 -0.031384666 1.1762131e-38 333 265
0.017599959 0.71700001 -0.031428497 1.1118209e-38 334 265
0.018857099 0.71700001 -0.031428497 1.3607491e-38 335 265
0.020114239 0.71700001 -0.031428497 1.4552832e-38 336 265
-0.038292799 0.72799999 -0.033187091 1.3989575e-38 290 266
-0.037016369 0.72799999 -0.033187091 1.094712e-38 291 266
-0.035739943 0.72799999 -0.033187091 1.305608e-38 292 266
-0.03441618 0.727 -0.033141505 1.2502906e-38 293 266
-0.032959159 0.72299999 -0.032959159 1.2591866e-38 294 266
-0.031691495 0.72299999 -0.032959159 1.2223089e-38 295 266
-0.030381758 0.722 -0.032913569 1.2313849e-38 296 266
-0.029115854 0.722 -0.032913569 1.212946e-38 297 266
-0.027849946 0.722 -0.032913569 1.2035831e-38 298 266
-0.026510401 0.72000003 -0.0328224 1.2035831e-38 299 266
-0.025248 0.72000003 -0.0328224 1.1943278e-38 300 266
-0.0239856 0.72000003 -0.0328224 1.2128029e-38 301 266
-0.022596961 0.71600002 -0.032640055 1.1944727e-38 302 266
-0.021341572 0.71600002 -0.032640055 1.2221673e-38 303 266
-0.020086186 0.71600002 -0.032640055 1.203874e-38 304 266
-0.0188308 0.71600002 -0.032640055 1.2315686e-38 305 266
-0.017526319 0.71399999 -0.032548878 1.2316065e-38 306 266
-0.016251646 0.713 -0.032503292 1.2408261e-38 307 266
-0.015001519 0.713 -0.032503292 1.2407545e-38 308 266
-0.01371282 0.71100003 -0.032412119 1.2683772e-38 309 266
-0.0124662 0.71100003 -0.032412119 1.23175e-38 310 266
-0.01121958 0.71100003 -0.032412119 1.2409696e-38 311 266
-0.0099729598 0.71100003 -0.032412119 1.2410399e-38 312 266
-0.0087140659 0.70999998 -0.032366529 1.2226008e-38 313 266
-0.0074691991 0.70999998 -0.032366529 1.2315305e-38 314 266
-0.0062243328 0.70999998 -0.032366529 1.1854685e-38 315 266
-0.0049794666 0.70999998 -0.032366529 1.2128743e-38 316 266
-0.0037345996 0.70999998 -0.032366529 1.1760324e-38 317 266
-0.0024897333 0.70999998 -0.032366529 1.1759607e-38 318 266
-0.0012448666 0.70999998 -0.032366529 1.1759607e-38 319 266
0 0.70999998 -0.032366529 1.1761042e-38 320 266
0.0012448666 0.70999998 -0.032366529 1.1761042e-38 321 266
0.0024897333 0.70999998 -0.032366529 1.1394059e-38 322 266
0.0037345996 0.70999998 -0.032366529 1.157809e-38 323 266
0.0049794666 0.70999998 -0.032366529 1.139478e-38 324 266
0.0062330998 0.71100003 -0.032412119 1.1486976e-38 325 266
0.0074797203 0.71100003 -0.032412119 1.1487692e-38 326 266
0.0087263398 0.71100003 -0.032412119 1.1395496e-38 327 266
0.010001013 0.713 -0.032503292 1.1394778e-38 328 266
0.011266919 0.71399999 -0.032548878 1.1302582e-38 329 266
0.012518799 0.71399999 -0.032548878 1.1301864e-38 330 266
0.013809253 0.71600002 -0.032640055 1.1301864e-38 331 266
0.01506464 0.71600002 -0.032640055 1.1394424e-38 332 266
0.016320027 0.71600002 -0.032640055 1.167137e-38 333 266
0.017599959 0.71700001 -0.032685637 1.1304748e-38 334 266
0.018857099 0.71700001 -0.032685637 1.2964271e-38 335 266
0.020198401 0.72000003 -0.0328224 1.46425e-38 336 266
-0.035690852 0.727 -0.03441618 1.2963175e-38 292 267
-0.03441618 0.727 -0.03441618 1.2686588e-38 293 267
-0.032959159 0.72299999 -0.03422682 1.259367e-38 294 267
-0.031691495 0.72299999 -0.03422682 1.2040496e-38 295 267
-0.030381758 0.722 -0.034179479 1.203978e-38 296 267
-0.029115854 0.722 -0.034179479 1.1855389e-38 297 267
-0.027849946 0.722 -0.034179479 1.2128743e-38 298 267
-0.026584039 0.722 -0.034179479 1.1944713e-38 299 267
-0.025248 0.72000003 -0.034084801 1.1944714e-38 300 267
-0.0239856 0.72000003 -0.034084801 1.1944714e-38 301 267
-0.022596961 0.71600002 -0.03389544 1.2128748e-38 302 267
-0.021341572 0.71600002 -0.03389544 1.2220944e-38 303 267
-0.020086186 0.71600002 -0.03389544 1.2312786e-38 304 267
-0.0188308 0.71600002 -0.03389544 1.2497178e-38 305 267
-0.017526319 0.71399999 -0.033800758 1.2405704e-38 306 267
-0.016251646 0.713 -0.033753417 1.2682292e-38 307 267
-0.014959441 0.71100003 -0.033658739 1.2498627e-38 308 267
-0.01371282 0.71100003 -0.033658739 1.2683016e-38 309 267
-0.0124662 0.71100003 -0.033658739 1.2317108e-38 310 267
-0.01121958 0.71100003 -0.033658739 1.2409304e-38 311 267
-0.0099729598 0.71100003 -0.033658739 1.2317108e-38 312 267
-0.0087140659 0.70999998 -0.033611398 1.2224554e-38 313 267
-0.0074691991 0.70999998 -0.033611398 1.2131995e-38 314 267
-0.0062243328 0.70999998 -0.033611398 1.1671017e-38 315 267
-0.0049794666 0.70999998 -0.033611398 1.2035474e-38 316 267
-0.0037345996 0.70999998 -0.033611398 1.1943278e-38 317 267
-0.0024897333 0.70999998 -0.033611398 1.1759607e-38 318 267
-0.0012448666 0.70999998 -0.033611398 1.1759607e-38 319 267
0 0.70999998 -0.033611398 1.1577371e-38 320 267
0.0012448666 0.70999998 -0.033611398 1.1577371e-38 321 267
0.0024897333 0.70999998 -0.033611398 1.1577012e-38 322 267
0.0037345996 0.70999998 -0.033611398 1.1484818e-38 323 267
0.0049794666 0.70999998 -0.033611398 1.1485535e-38 324 267
0.0062330998 0.71100003 -0.033658739 1.1485535e-38 325 267
0.0074797203 0.71100003 -0.033658739 1.1302223e-38 326 267
0.0087508867 0.713 -0.033753417 1.1302223e-38 327 267
0.01001504 0.71399999 -0.033800758 1.1392983e-38 328 267
0.011266919 0.71399999 -0.033800758 1.1300788e-38 329 267
0.012553867 0.71600002 -0.03389544 1.1300788e-38 330 267
0.013809253 0.71600002 -0.03389544 1.1485535e-38 331 267
0.015085679 0.71700001 -0.033942781 1.139478e-38 332 267
0.016342819 0.71700001 -0.033942781 1.1855398e-38 333 267
0.017599959 0.71700001 -0.033942781 1.1580244e-38 334 267
0.018909698 0.71899998 -0.03403746 1.3516352e-38 335 267
0.020198401 0.72000003 -0.034084801 1.4734327e-38 336 267
0.021460801 0.72000003 -0.034084801 1.6578239e-38 337 267
-0.03441618 0.727 -0.035690852 1.2688739e-38 293 268
-0.032959159 0.72299999 -0.035494477 1.2685497e-38 294 268
-0.031691495 0.72299999 -0.035494477 1.2316718e-38 295 268
-0.030423839 0.72299999 -0.035494477 1.2315642e-38 296 268
-0.029115854 0.722 -0.035445385 1.2131254e-38 297 268
-0.027849946 0.722 -0.035445385 1.231349e-38 298 268
-0.026584039 0.722 -0.035445385 1.2221296e-38 299 268
-0.025248 0.72000003 -0.035347197 1.2220578e-38 300 268
-0.0239856 0.72000003 -0.035347197 1.2220578e-38 301 268
-0.022596961 0.71600002 -0.035150826 1.2128748e-38 302 268
-0.021341572 0.71600002 -0.035150826 1.2220944e-38 303 268
-0.020086186 0.71600002 -0.035150826 1.2036923e-38 304 268
-0.0188308 0.71600002 -0.035150826 1.2129477e-38 305 268
-0.017526319 0.71399999 -0.035052639 1.194653e-38 306 268
-0.016251646 0.713 -0.035003547 1.2038726e-38 307 268
-0.014959441 0.71100003 -0.034905359 1.203837e-38 308 268
-0.01371282 0.71100003 -0.034905359 1.2222761e-38 309 268
-0.0124662 0.71100003 -0.034905359 1.2131286e-38 310 268
-0.01121958 0.71100003 -0.034905359 1.222384e-38 311 268
-0.0099729598 0.71100003 -0.034905359 1.2040165e-38 312 268
-0.0087263398 0.71100003 -0.034905359 1.1856134e-38 313 268
-0.0074797203 0.71100003 -0.034905359 1.1854329e-38 314 268
-0.0062243328 0.70999998 -0.034856264 1.1669938e-38 315 268
-0.0049794666 0.70999998 -0.034856264 1.1852519e-38 316 268
-0.0037345996 0.70999998 -0.034856264 1.1760324e-38 317 268
-0.0024897333 0.70999998 -0.034856264 1.166813e-38 318 268
-0.0012448666 0.70999998 -0.034856264 1.166813e-38 319 268
0 0.70999998 -0.034856264 1.1575936e-38 320 268
0.0012448666 0.70999998 -0.034856264 1.1575936e-38 321 268
0.0024932399 0.71100003 -0.034905359 1.1392265e-38 322 268
0.0037398601 0.71100003 -0.034905359 1.1392265e-38 323 268
0.0049864799 0.71100003 -0.034905359 1.1117117e-38 324 268
0.0062330998 0.71100003 -0.034905359 1.1117117e-38 325 268
0.0074797203 0.71100003 -0.034905359 1.130043e-38 326 268
0.0087508867 0.713 -0.035003547 1.130043e-38 327 268
0.01001504 0.71399999 -0.035052639 1.1117117e-38 328 268
0.011266919 0.71399999 -0.035052639 1.1117117e-38 329 268
0.012553867 0.71600002 -0.035150826 1.1026358e-38 330 268
0.013809253 0.71600002 -0.035150826 1.1302582e-38 331 268
0.015085679 0.71700001 -0.035199918 1.1211828e-38 332 268
0.016342819 0.71700001 -0.035199918 1.1672805e-38 333 268
0.017599959 0.71700001 -0.035199918 1.1489843e-38 334 268
0.018909698 0.71899998 -0.035298105 1.3333756e-38 335 268
0.020170346 0.71899998 -0.035298105 1.4825797e-38 336 268
-0.03441618 0.727 -0.036965527 1.2595835e-38 293 269
-0.032959159 0.72299999 -0.036762137 1.2778068e-38 294 269
-0.031691495 0.72299999 -0.036762137 1.2224894e-38 295 269
-0.030423839 0.72299999 -0.036762137 1.2407488e-38 296 269
-0.029115854 0.722 -0.03671129 1.2315291e-38 297 269
-0.027849946 0.722 -0.03671129 1.2405688e-38 298 269
-0.026584039 0.722 -0.03671129 1.2313493e-38 299 269
-0.025248 0.72000003 -0.036609601 1.2128743e-38 300 269
-0.0239856 0.72000003 -0.036609601 1.2128743e-38 301 269
-0.02262852 0.71700001 -0.036457058 1.2128745e-38 302 269
-0.021371379 0.71700001 -0.036457058 1.2220941e-38 303 269
-0.020114239 0.71700001 -0.036457058 1.2037632e-38 304 269
-0.0188308 0.71600002 -0.036406212 1.2037632e-38 305 269
-0.017526319 0.71399999 -0.036304519 1.2129471e-38 306 269
-0.016274439 0.71399999 -0.036304519 1.2129471e-38 307 269
-0.015001519 0.713 -0.036253672 1.2036923e-38 308 269
-0.01371282 0.71100003 -0.036151983 1.2129477e-38 309 269
-0.0124662 0.71100003 -0.036151983 1.212984e-38 310 269
-0.01121958 0.71100003 -0.036151983 1.212984e-38 311 269
-0.0099729598 0.71100003 -0.036151983 1.1855048e-38 312 269
-0.0087263398 0.71100003 -0.036151983 1.1855048e-38 313 269
-0.0074797203 0.71100003 -0.036151983 1.1761412e-38 314 269
-0.0062330998 0.71100003 -0.036151983 1.1669216e-38 315 269
-0.0049864799 0.71100003 -0.036151983 1.1852161e-38 316 269
-0.0037398601 0.71100003 -0.036151983 1.1667772e-38 317 269
-0.0024932399 0.71100003 -0.036151983 1.166813e-38 318 269
-0.00124662 0.71100003 -0.036151983 1.1575936e-38 319 269
0 0.71100003 -0.036151983 1.1575936e-38 320 269
0.00124662 0.71100003 -0.036151983 1.1483742e-38 321 269
0.0024932399 0.71100003 -0.036151983 1.1483383e-38 322 269
0.0037398601 0.71100003 -0.036151983 1.1483383e-38 323 269
0.0049864799 0.71100003 -0.036151983 1.1116759e-38 324 269
0.0062330998 0.71100003 -0.036151983 1.1116759e-38 325 269
0.0074797203 0.71100003 -0.036151983 1.1207518e-38 326 269
0.0087508867 0.713 -0.036253672 1.1299712e-38 327 269
0.01001504 0.71399999 -0.036304519 1.1024923e-38 328 269
0.01129848 0.71600002 -0.036406212 1.1024923e-38 329 269
0.012553867 0.71600002 -0.036406212 1.1210032e-38 330 269
0.013828539 0.71700001 -0.036457058 1.1394424e-38 331 269
0.015085679 0.71700001 -0.036457058 1.1304029e-38 332 269
0.016342819 0.71700001 -0.036457058 1.1765008e-38 333 269
0.017649053 0.71899998 -0.036558751 1.1673155e-38 334 269
0.018909698 0.71899998 -0.036558751 1.3701459e-38 335 269
0.020170346 0.71899998 -0.036558751 1.4827597e-38 336 269
-0.034463517 0.72799999 -0.038292799 1.2688033e-38 293 270
-0.032959159 0.72299999 -0.038029801 1.2595116e-38 294 270
-0.031691495 0.72299999 -0.038029801 1.2134496e-38 295 270
-0.030423839 0.72299999 -0.038029801 1.2499686e-38 296 270
-0.029115854 0.722 -0.0379772 1.2222739e-38 297 270
-0.027849946 0.722 -0.0379772 1.2589003e-38 298 270
-0.026584039 0.722 -0.0379772 1.2589003e-38 299 270
-0.025318133 0.722 -0.0379772 1.2313493e-38 300 270
-0.0239856 0.72000003 -0.037871998 1.2313493e-38 301 270
-0.022691639 0.71899998 -0.037819397 1.2312418e-38 302 270
-0.021430992 0.71899998 -0.037819397 1.2404972e-38 303 270
-0.020114239 0.71700001 -0.037714198 1.2038348e-38 304 270
-0.0188308 0.71600002 -0.037661601 1.2038348e-38 305 270
-0.017575413 0.71600002 -0.037661601 1.2129824e-38 306 270
-0.016274439 0.71399999 -0.037556399 1.1945433e-38 307 270
-0.015001519 0.713 -0.037503798 1.194508e-38 308 270
-0.013751393 0.713 -0.037503798 1.194508e-38 309 270
