# .PCD v.7 - Point Cloud Data file format
FIELDS x y z rgb imX imY
SIZE 4 4 4 4 4 4
TYPE F F F F F F
COUNT 1 1 1 1 1 1
WIDTH 836
HEIGHT 1
VIEWPOINT 0 0 0 1 0 0 0
POINTS 836
DATA ascii
-0.026768139 0.727 -0.012746733 1.332944e-38 299 250
-0.025353199 0.72299999 -0.012676599 1.3326919e-38 300 250
-0.024085538 0.72299999 -0.012676599 1.3234723e-38 301 250
-0.02281788 0.72299999 -0.012676599 1.3141087e-38 302 250
-0.021550218 0.72299999 -0.012676599 1.3141087e-38 303 250
-0.020282559 0.72299999 -0.012676599 1.3232205e-38 304 250
-0.0189886 0.722 -0.012659066 1.2955621e-38 305 250
-0.017722692 0.722 -0.012659066 1.2955622e-38 306 250
-0.016456785 0.722 -0.012659066 1.2955622e-38 307 250
-0.015190879 0.722 -0.012659066 1.3140009e-38 308 250
-0.013924973 0.722 -0.012659066 1.3232205e-38 309 250
-0.012659066 0.722 -0.012659066 1.3141087e-38 310 250
-0.01139316 0.722 -0.012659066 1.3233283e-38 311 250
-0.010085173 0.71899998 -0.012606465 1.3236152e-38 312 250
-0.0088245263 0.71899998 -0.012606465 1.3512381e-38 313 250
-0.0075954394 0.722 -0.012659066 1.3421264e-38 314 250
-0.0063295332 0.722 -0.012659066 1.3144676e-38 315 250
-0.0050636264 0.722 -0.012659066 1.2958859e-38 316 250
-0.0037977197 0.722 -0.012659066 1.2866664e-38 317 250
-0.0025248001 0.72000003 -0.012624 1.249898e-38 318 250
-0.0012624001 0.72000003 -0.012624 1.249898e-38 319 250
0 0.72000003 -0.012624 1.2224203e-38 320 250
0.0012659066 0.722 -0.012659066 1.2408953e-38 321 250
0.0025318132 0.722 -0.012659066 1.2226727e-38 322 250
0.0037977197 0.722 -0.012659066 1.2411118e-38 323 250
0.0050636264 0.722 -0.012659066 1.2320372e-38 324 250
0.0063295332 0.722 -0.012659066 1.278099e-38 325 250
0.0076059597 0.72299999 -0.012676599 1.213922e-38 326 250
0.0088736191 0.72299999 -0.012676599 1.1862633e-38 327 250
0.01014128 0.72299999 -0.012676599 1.2062865e-38 328 250
-0.034558199 0.73000002 -0.014079267 1.0952902e-38 293 251
-0.033187091 0.72799999 -0.014040692 1.3707242e-38 294 251
-0.031910665 0.72799999 -0.014040692 1.3799439e-38 295 251
-0.030592158 0.727 -0.014021406 1.3889823e-38 296 251
-0.029317487 0.727 -0.014021406 1.3152258e-38 297 251
-0.027965667 0.72500002 -0.013982833 1.3698945e-38 298 251
-0.026694499 0.72500002 -0.013982833 1.3330163e-38 299 251
-0.025353199 0.72299999 -0.01394426 1.3418395e-38 300 251
-0.024052227 0.722 -0.013924973 1.3418395e-38 301 251
-0.022786319 0.722 -0.013924973 1.3234001e-38 302 251
-0.021520413 0.722 -0.013924973 1.3141806e-38 303 251
-0.020254506 0.722 -0.013924973 1.314109e-38 304 251
-0.0189886 0.722 -0.013924973 1.2956338e-38 305 251
-0.017673599 0.72000003 -0.0138864 1.314109e-38 306 251
-0.0164112 0.72000003 -0.0138864 1.3048893e-38 307 251
-0.01512776 0.71899998 -0.013867113 1.3141444e-38 308 251
-0.013867113 0.71899998 -0.013867113 1.3417668e-38 309 251
-0.012606465 0.71899998 -0.013867113 1.3144314e-38 310 251
-0.01134582 0.71899998 -0.013867113 1.3236508e-38 311 251
-0.010085173 0.71899998 -0.013867113 1.3420538e-38 312 251
-0.0088245263 0.71899998 -0.013867113 1.3697481e-38 313 251
-0.0075638802 0.71899998 -0.013867113 1.3511662e-38 314 251
-0.0063120001 0.72000003 -0.0138864 1.3235073e-38 315 251
-0.0050636264 0.722 -0.013924973 1.2866666e-38 316 251
-0.0037872 0.72000003 -0.0138864 1.2774112e-38 317 251
-0.0025248001 0.72000003 -0.0138864 1.2406781e-38 318 251
-0.0012624001 0.72000003 -0.0138864 1.2406781e-38 319 251
0 0.72000003 -0.0138864 1.2041244e-38 320 251
0.0012624001 0.72000003 -0.0138864 1.213344e-38 321 251
0.0025318132 0.722 -0.013924973 1.2133806e-38 322 251
0.0037977197 0.722 -0.013924973 1.2226003e-38 323 251
0.0050636264 0.722 -0.013924973 1.2318557e-38 324 251
0.0063295332 0.722 -0.013924973 1.2594784e-38 325 251
0.0075954394 0.722 -0.013924973 1.2413271e-38 326 251
0.0088613462 0.722 -0.013924973 1.2413271e-38 327 251
0.01014128 0.72299999 -0.01394426 1.1591085e-38 328 251
0.01140894 0.72299999 -0.01394426 1.3619389e-38 329 251
0.012676599 0.72299999 -0.01394426 1.4282767e-38 330 251
-0.037168913 0.73100001 -0.01538024 1.5204704e-38 291 252
-0.035887226 0.73100001 -0.01538024 1.1776902e-38 292 252
-0.034463517 0.72799999 -0.01531712 1.0947141e-38 293 252
-0.033187091 0.72799999 -0.01531712 1.3801943e-38 294 252
-0.031910665 0.72799999 -0.01531712 1.3801943e-38 295 252
-0.030592158 0.727 -0.015296079 1.398454e-38 296 252
-0.029317487 0.727 -0.015296079 1.3062223e-38 297 252
-0.027965667 0.72500002 -0.015254001 1.3515646e-38 298 252
-0.026620859 0.72299999 -0.015211919 1.2870276e-38 299 252
-0.025318133 0.722 -0.015190879 1.3419481e-38 300 252
-0.0239856 0.72000003 -0.0151488 1.2958862e-38 301 252
-0.022723202 0.72000003 -0.0151488 1.3141806e-38 302 252
-0.021460801 0.72000003 -0.0151488 1.3141806e-38 303 252
-0.020254506 0.722 -0.015190879 1.3141806e-38 304 252
-0.018935999 0.72000003 -0.0151488 1.3141806e-38 305 252
-0.017673599 0.72000003 -0.0151488 1.3141803e-38 306 252
-0.016388407 0.71899998 -0.01512776 1.3141803e-38 307 252
-0.01512776 0.71899998 -0.01512776 1.3234715e-38 308 252
-0.013867113 0.71899998 -0.01512776 1.3603133e-38 309 252
-0.012606465 0.71899998 -0.01512776 1.3329779e-38 310 252
-0.01131426 0.71700001 -0.015085679 1.3514526e-38 311 252
-0.01005712 0.71700001 -0.015085679 1.3421973e-38 312 252
-0.0087999795 0.71700001 -0.015085679 1.3329779e-38 313 252
-0.0075428397 0.71700001 -0.015085679 1.3327272e-38 314 252
-0.0062857 0.71700001 -0.015085679 1.3050686e-38 315 252
-0.0050425865 0.71899998 -0.01512776 1.3141458e-38 316 252
-0.0037819401 0.71899998 -0.01512776 1.3048904e-38 317 252
-0.0025142799 0.71700001 -0.015085679 1.2589733e-38 318 252
-0.00125714 0.71700001 -0.015085679 1.2589733e-38 319 252
0 0.71700001 -0.015085679 1.2224554e-38 320 252
0.0012606466 0.71899998 -0.01512776 1.2132358e-38 321 252
0.0025248001 0.72000003 -0.0151488 1.1858651e-38 322 252
0.0037977197 0.722 -0.015190879 1.1950846e-38 323 252
0.0050496003 0.72000003 -0.0151488 1.1951567e-38 324 252
0.0063120001 0.72000003 -0.0151488 1.1951567e-38 325 252
0.0075954394 0.722 -0.015190879 1.1952661e-38 326 252
0.0088613462 0.722 -0.015190879 1.2228888e-38 327 252
0.010127253 0.722 -0.015190879 1.1860481e-38 328 252
0.01140894 0.72299999 -0.015211919 1.1860481e-38 329 252
0.012659066 0.722 -0.015190879 1.233874e-38 330 252
0.013924973 0.722 -0.015190879 1.6303152e-38 331 252
-0.037270606 0.73299998 -0.016707512 1.3083128e-38 291 253
-0.035887226 0.73100001 -0.016661927 1.1494923e-38 292 253
-0.034463517 0.72799999 -0.016593546 1.2508716e-38 293 253
-0.033187091 0.72799999 -0.016593546 1.3893436e-38 294 253
-0.031910665 0.72799999 -0.016593546 1.4538805e-38 295 253
-0.030592158 0.727 -0.016570752 1.4171464e-38 296 253
-0.029236834 0.72500002 -0.016525166 1.2880726e-38 297 253
-0.02788852 0.72299999 -0.01647958 1.3424898e-38 298 253
-0.026584039 0.722 -0.016456785 1.2963921e-38 299 253
-0.025248 0.72000003 -0.0164112 1.3418048e-38 300 253
-0.0239856 0.72000003 -0.0164112 1.3325494e-38 301 253
-0.022723202 0.72000003 -0.0164112 1.3233651e-38 302 253
-0.021460801 0.72000003 -0.0164112 1.3233651e-38 303 253
-0.020198401 0.72000003 -0.0164112 1.3141453e-38 304 253
-0.018909698 0.71899998 -0.016388407 1.3141453e-38 305 253
-0.017649053 0.71899998 -0.016388407 1.3050336e-38 306 253
-0.016342819 0.71700001 -0.016342819 1.3050336e-38 307 253
-0.015085679 0.71700001 -0.016342819 1.3327272e-38 308 253
-0.013828539 0.71700001 -0.016342819 1.3511665e-38 309 253
-0.0125714 0.71700001 -0.016342819 1.3421973e-38 310 253
-0.01131426 0.71700001 -0.016342819 1.3514169e-38 311 253
-0.010043093 0.71600002 -0.016320027 1.3421617e-38 312 253
-0.0087877065 0.71600002 -0.016320027 1.3329421e-38 313 253
-0.00753232 0.71600002 -0.016320027 1.3418751e-38 314 253
-0.0062769335 0.71600002 -0.016320027 1.3326197e-38 315 253
-0.0050285598 0.71700001 -0.016342819 1.2865948e-38 316 253
-0.0037714199 0.71700001 -0.016342819 1.2773392e-38 317 253
-0.0025107733 0.71600002 -0.016320027 1.2589731e-38 318 253
-0.0012553866 0.71600002 -0.016320027 1.2773762e-38 319 253
0 0.71700001 -0.016342819 1.2224191e-38 320 253
0.00125714 0.71700001 -0.016342819 1.2500417e-38 321 253
0.0025142799 0.71700001 -0.016342819 1.185972e-38 322 253
0.0037819401 0.71899998 -0.016388407 1.2044113e-38 323 253
0.0050425865 0.71899998 -0.016388407 1.1769324e-38 324 253
0.0063032326 0.71899998 -0.016388407 1.1769324e-38 325 253
0.0075743999 0.72000003 -0.0164112 1.1950844e-38 326 253
0.0088613462 0.722 -0.016456785 1.2134876e-38 327 253
0.010127253 0.722 -0.016456785 1.1951579e-38 328 253
0.01139316 0.722 -0.016456785 1.1951579e-38 329 253
0.012659066 0.722 -0.016456785 1.0945366e-38 330 253
0.013924973 0.722 -0.016456785 1.4540635e-38 331 253
0.015190879 0.722 -0.016456785 1.5851165e-38 332 253
-0.037270606 0.73299998 -0.017992707 1.0684964e-38 291 254
-0.035887226 0.73100001 -0.017943613 1.1492772e-38 292 254
-0.034558199 0.73000002 -0.017919067 1.3336684e-38 293 254
-0.033187091 0.72799999 -0.017869972 1.4263666e-38 294 254
-0.031910665 0.72799999 -0.017869972 1.4263666e-38 295 254
-0.030592158 0.727 -0.017845426 1.4169669e-38 296 254
-0.029156178 0.72299999 -0.017747238 1.2878931e-38 297 254
-0.027849946 0.722 -0.017722692 1.3425618e-38 298 254
-0.026584039 0.722 -0.017722692 1.2596216e-38 299 254
-0.025248 0.72000003 -0.017673599 1.3235819e-38 300 254
-0.023952285 0.71899998 -0.017649053 1.2774841e-38 301 254
-0.022691639 0.71899998 -0.017649053 1.3051058e-38 302 254
-0.021430992 0.71899998 -0.017649053 1.2958862e-38 303 254
-0.020170346 0.71899998 -0.017649053 1.3050336e-38 304 254
-0.018857099 0.71700001 -0.017599959 1.3050336e-38 305 254
-0.017599959 0.71700001 -0.017599959 1.3050339e-38 306 254
-0.016342819 0.71700001 -0.017599959 1.2958143e-38 307 254
-0.015085679 0.71700001 -0.017599959 1.3233651e-38 308 254
-0.013809253 0.71600002 -0.017575413 1.3325847e-38 309 254
-0.012553867 0.71600002 -0.017575413 1.3143251e-38 310 254
-0.01129848 0.71600002 -0.017575413 1.3235805e-38 311 254
-0.010043093 0.71600002 -0.017575413 1.3051055e-38 312 254
-0.0087877065 0.71600002 -0.017575413 1.3143251e-38 313 254
-0.00753232 0.71600002 -0.017575413 1.3326916e-38 314 254
-0.0062769335 0.71600002 -0.017575413 1.3050689e-38 315 254
-0.0050215465 0.71600002 -0.017575413 1.3233285e-38 316 254
-0.00376616 0.71600002 -0.017575413 1.3048893e-38 317 254
-0.0025107733 0.71600002 -0.017575413 1.2773396e-38 318 254
-0.0012553866 0.71600002 -0.017575413 1.2773396e-38 319 254
0 0.71600002 -0.017575413 1.2315307e-38 320 254
0.0012553866 0.71600002 -0.017575413 1.2407503e-38 321 254
0.0025142799 0.71700001 -0.017599959 1.2134512e-38 322 254
0.0037714199 0.71700001 -0.017599959 1.2318904e-38 323 254
0.0050285598 0.71700001 -0.017599959 1.1952636e-38 324 254
0.0063032326 0.71899998 -0.017649053 1.1952636e-38 325 254
0.0075743999 0.72000003 -0.017673599 1.1677857e-38 326 254
0.0088613462 0.722 -0.017722692 1.1585302e-38 327 254
0.010127253 0.722 -0.017722692 1.1860828e-38 328 254
0.01139316 0.722 -0.017722692 1.1492406e-38 329 254
0.012659066 0.722 -0.017722692 1.0754854e-38 330 254
0.0138864 0.72000003 -0.017673599 1.2137788e-38 331 254
0.0151488 0.72000003 -0.017673599 1.4188403e-38 332 254
0.0164112 0.72000003 -0.017673599 1.7507446e-38 333 254
-0.037270606 0.73299998 -0.019277899 9.206224e-39 291 255
-0.035985414 0.73299998 -0.019277899 1.1951582e-38 292 255
-0.034558199 0.73000002 -0.019199001 1.3611103e-38 293 255
-0.033278264 0.73000002 -0.019199001 1.4354426e-38 294 255
-0.031910665 0.72799999 -0.0191464 1.3986004e-38 295 255
-0.030508002 0.72500002 -0.0190675 1.361578e-38 296 255
-0.029156178 0.72299999 -0.019014901 1.2693463e-38 297 255
-0.027849946 0.722 -0.0189886 1.3239787e-38 298 255
-0.026584039 0.722 -0.0189886 1.296284e-38 299 255
-0.025248 0.72000003 -0.018935999 1.3143623e-38 300 255
-0.023952285 0.71899998 -0.018909698 1.3051426e-38 301 255
-0.022691639 0.71899998 -0.018909698 1.2958506e-38 302 255
-0.021430992 0.71899998 -0.018909698 1.2958506e-38 303 255
-0.020114239 0.71700001 -0.018857099 1.3050336e-38 304 255
-0.018857099 0.71700001 -0.018857099 1.295814e-38 305 255
-0.017599959 0.71700001 -0.018857099 1.2958143e-38 306 255
-0.016320027 0.71600002 -0.0188308 1.2773392e-38 307 255
-0.01506464 0.71600002 -0.0188308 1.2955988e-38 308 255
-0.013809253 0.71600002 -0.0188308 1.2955988e-38 309 255
-0.012553867 0.71600002 -0.0188308 1.2956344e-38 310 255
-0.011266919 0.71399999 -0.018778199 1.2956344e-38 311 255
-0.01001504 0.71399999 -0.018778199 1.304926e-38 312 255
-0.0087631596 0.71399999 -0.018778199 1.3141455e-38 313 255
-0.0075112795 0.71399999 -0.018778199 1.2958859e-38 314 255
-0.0062506334 0.713 -0.018751899 1.2958859e-38 315 255
-0.0050005065 0.713 -0.018751899 1.323472e-38 316 255
-0.0037556398 0.71399999 -0.018778199 1.2866298e-38 317 255
-0.0025037599 0.71399999 -0.018778199 1.2865948e-38 318 255
-0.00125188 0.71399999 -0.018778199 1.2681196e-38 319 255
0 0.71399999 -0.018778199 1.2405701e-38 320 255
0.00125188 0.71399999 -0.018778199 1.2497898e-38 321 255
0.0025107733 0.71600002 -0.0188308 1.2132714e-38 322 255
0.0037714199 0.71700001 -0.018857099 1.2317105e-38 323 255
0.0050285598 0.71700001 -0.018857099 1.195192e-38 324 255
0.0062857 0.71700001 -0.018857099 1.2044115e-38 325 255
0.0075954394 0.722 -0.0189886 1.1861522e-38 326 255
0.0088613462 0.722 -0.0189886 1.1861522e-38 327 255
0.010127253 0.722 -0.0189886 1.1768973e-38 328 255
0.01139316 0.722 -0.0189886 1.1861169e-38 329 255
0.012659066 0.722 -0.0189886 1.0938153e-38 330 255
0.0138864 0.72000003 -0.018935999 1.0754121e-38 331 255
0.0151488 0.72000003 -0.018935999 1.2523484e-38 332 255
0.0164112 0.72000003 -0.018935999 1.6672646e-38 333 255
-0.037270606 0.73299998 -0.020563092 8.3732194e-39 291 256
-0.035985414 0.73299998 -0.020563092 1.2041613e-38 292 256
-0.034558199 0.73000002 -0.020478934 1.3424547e-38 293 256
-0.033278264 0.73000002 -0.020478934 1.3429233e-38 294 256
-0.03186683 0.727 -0.020394772 1.3060451e-38 295 256
-0.030508002 0.72500002 -0.020338668 1.3333798e-38 296 256
-0.029156178 0.72299999 -0.020282559 1.3056851e-38 297 256
-0.027849946 0.722 -0.020254506 1.3054317e-38 298 256
-0.026510401 0.72000003 -0.020198401 1.277773e-38 299 256
-0.025212931 0.71899998 -0.020170346 1.2960311e-38 300 256
-0.023952285 0.71899998 -0.020170346 1.277556e-38 301 256
-0.02262852 0.71700001 -0.020114239 1.2867745e-38 302 256
-0.021371379 0.71700001 -0.020114239 1.277555e-38 303 256
-0.020114239 0.71700001 -0.020114239 1.2866664e-38 304 256
-0.018857099 0.71700001 -0.020114239 1.2866664e-38 305 256
-0.017599959 0.71700001 -0.020114239 1.2774112e-38 306 256
-0.016320027 0.71600002 -0.020086186 1.259008e-38 307 256
-0.01506464 0.71600002 -0.020086186 1.268048e-38 308 256
-0.013809253 0.71600002 -0.020086186 1.2588284e-38 309 256
-0.012518799 0.71399999 -0.020030079 1.2587563e-38 310 256
-0.011266919 0.71399999 -0.020030079 1.2771594e-38 311 256
-0.01001504 0.71399999 -0.020030079 1.2681196e-38 312 256
-0.0087508867 0.713 -0.020002026 1.2681196e-38 313 256
-0.0075007593 0.713 -0.020002026 1.2867017e-38 314 256
-0.0062506334 0.713 -0.020002026 1.3051408e-38 315 256
-0.0050005065 0.713 -0.020002026 1.3235073e-38 316 256
-0.0037503797 0.713 -0.020002026 1.3051044e-38 317 256
-0.0025002533 0.713 -0.020002026 1.2958496e-38 318 256
-0.0012501266 0.713 -0.020002026 1.2681549e-38 319 256
0 0.713 -0.020002026 1.2406054e-38 320 256
0.0012501266 0.713 -0.020002026 1.2406054e-38 321 256
0.0025002533 0.713 -0.020002026 1.2407137e-38 322 256
0.0037556398 0.71399999 -0.020030079 1.2499333e-38 323 256
0.0050215465 0.71600002 -0.020086186 1.2224907e-38 324 256
0.0062769335 0.71600002 -0.020086186 1.2501854e-38 325 256
0.0075743999 0.72000003 -0.020198401 1.2227428e-38 326 256
0.0088613462 0.722 -0.020254506 1.2227428e-38 327 256
0.010127253 0.722 -0.020254506 1.1861169e-38 328 256
0.01139316 0.722 -0.020254506 1.1953365e-38 329 256
0.012676599 0.72299999 -0.020282559 1.1583874e-38 330 256
0.01394426 0.72299999 -0.020282559 1.0569724e-38 331 256
0.015211919 0.72299999 -0.020282559 1.0946801e-38 332 256
0.01647958 0.72299999 -0.020282559 1.6201952e-38 333 256
-0.039895348 0.73400003 -0.021878093 1.7048611e-38 289 257
-0.037321456 0.73400003 -0.021878093 8.5558099e-39 291 257
-0.035887226 0.73100001 -0.021788673 1.2131286e-38 292 257
-0.034558199 0.73000002 -0.021758866 1.3145437e-38 293 257
-0.033187091 0.72799999 -0.021699252 1.2871372e-38 294 257
-0.03186683 0.727 -0.021669446 1.2686979e-38 295 257
-0.030508002 0.72500002 -0.021609833 1.2961055e-38 296 257
-0.029156178 0.72299999 -0.021550218 1.2776305e-38 297 257
-0.027849946 0.722 -0.021520413 1.2867775e-38 298 257
-0.026510401 0.72000003 -0.021460801 1.2683742e-38 299 257
-0.025212931 0.71899998 -0.021430992 1.2684446e-38 300 257
-0.023952285 0.71899998 -0.021430992 1.2684446e-38 301 257
-0.02262852 0.71700001 -0.021371379 1.2868464e-38 302 257
-0.021371379 0.71700001 -0.021371379 1.277591e-38 303 257
-0.020114239 0.71700001 -0.021371379 1.2866664e-38 304 257
-0.018857099 0.71700001 -0.021371379 1.2866664e-38 305 257
-0.017575413 0.71600002 -0.021341572 1.2866661e-38 306 257
-0.016320027 0.71600002 -0.021341572 1.2590433e-38 307 257
-0.01506464 0.71600002 -0.021341572 1.277195e-38 308 257
-0.01377068 0.71399999 -0.021281958 1.258792e-38 309 257
-0.012501267 0.713 -0.021252153 1.2495726e-38 310 257
-0.011251139 0.713 -0.021252153 1.258792e-38 311 257
-0.010001013 0.713 -0.021252153 1.2405325e-38 312 257
-0.0087508867 0.713 -0.021252153 1.2589355e-38 313 257
-0.0075007593 0.713 -0.021252153 1.2867017e-38 314 257
-0.0062330998 0.71100003 -0.021192541 1.3051408e-38 315 257
-0.0049864799 0.71100003 -0.021192541 1.3143955e-38 316 257
-0.0037398601 0.71100003 -0.021192541 1.3051761e-38 317 257
-0.0024932399 0.71100003 -0.021192541 1.2959567e-38 318 257
-0.0012501266 0.713 -0.021252153 1.2775178e-38 319 257
0 0.713 -0.021252153 1.2498955e-38 320 257
0.0012501266 0.713 -0.021252153 1.240676e-38 321 257
0.0025002533 0.713 -0.021252153 1.2406407e-38 322 257
0.0037503797 0.713 -0.021252153 1.2498603e-38 323 257
0.0050075199 0.71399999 -0.021281958 1.2131989e-38 324 257
0.0062593995 0.71399999 -0.021281958 1.2316739e-38 325 257
0.0075743999 0.72000003 -0.021460801 1.2133793e-38 326 257
0.0088367993 0.72000003 -0.021460801 1.2317824e-38 327 257
0.010127253 0.722 -0.021520413 1.1952283e-38 328 257
0.01139316 0.722 -0.021520413 1.2044478e-38 329 257
0.012676599 0.72299999 -0.021550218 1.1861532e-38 330 257
0.01394426 0.72299999 -0.021550218 1.1216162e-38 331 257
0.015211919 0.72299999 -0.021550218 1.0109835e-38 332 257
0.01647958 0.72299999 -0.021550218 1.4719616e-38 333 257
-0.038608398 0.73400003 -0.023165042 1.3901713e-38 290 258
-0.037321456 0.73400003 -0.023165042 9.1079005e-39 291 258
-0.035838135 0.73000002 -0.023038799 1.2314954e-38 292 258
-0.034463517 0.72799999 -0.022975679 1.2684095e-38 293 258
-0.033187091 0.72799999 -0.022975679 1.2867411e-38 294 258
-0.03186683 0.727 -0.022944121 1.2682661e-38 295 258
-0.030508002 0.72500002 -0.022880999 1.2865254e-38 296 258
-0.029156178 0.72299999 -0.02281788 1.2773058e-38 297 258
-0.027849946 0.722 -0.022786319 1.2498983e-38 298 258
-0.026510401 0.72000003 -0.022723202 1.2683014e-38 299 258
-0.025212931 0.71899998 -0.022691639 1.2592247e-38 300 258
-0.023952285 0.71899998 -0.022691639 1.2592247e-38 301 258
-0.02262852 0.71700001 -0.02262852 1.2868108e-38 302 258
-0.021371379 0.71700001 -0.02262852 1.2775913e-38 303 258
-0.020114239 0.71700001 -0.02262852 1.277555e-38 304 258
-0.018857099 0.71700001 -0.02262852 1.3051777e-38 305 258
-0.017575413 0.71600002 -0.022596961 1.277591e-38 306 258
-0.016320027 0.71600002 -0.022596961 1.2683714e-38 307 258
-0.015022559 0.71399999 -0.022533838 1.25908e-38 308 258
-0.013751393 0.713 -0.022502279 1.2222376e-38 309 258
-0.012501267 0.713 -0.022502279 1.2404967e-38 310 258
-0.01121958 0.71100003 -0.022439159 1.2312772e-38 311 258
-0.0099729598 0.71100003 -0.022439159 1.2496443e-38 312 258
-0.0087263398 0.71100003 -0.022439159 1.2680832e-38 313 258
-0.0074797203 0.71100003 -0.022439159 1.2774821e-38 314 258
-0.0062330998 0.71100003 -0.022439159 1.2959212e-38 315 258
-0.0049864799 0.71100003 -0.022439159 1.3051761e-38 316 258
-0.0037398601 0.71100003 -0.022439159 1.3143957e-38 317 258
-0.0024932399 0.71100003 -0.022439159 1.3051761e-38 318 258
-0.00124662 0.71100003 -0.022439159 1.277482e-38 319 258
0 0.71100003 -0.022439159 1.2407838e-38 320 258
0.00124662 0.71100003 -0.022439159 1.2223448e-38 321 258
0.0024932399 0.71100003 -0.022439159 1.2406407e-38 322 258
0.0037398601 0.71100003 -0.022439159 1.2406407e-38 323 258
0.0050005065 0.713 -0.022502279 1.2314939e-38 324 258
0.0062506334 0.713 -0.022502279 1.2407134e-38 325 258
0.0075112795 0.71399999 -0.022533838 1.2224544e-38 326 258
0.0088245263 0.71899998 -0.022691639 1.2316739e-38 327 258
0.010099201 0.72000003 -0.022723202 1.2042313e-38 328 258
0.01139316 0.722 -0.022786319 1.2226706e-38 329 258
0.012659066 0.722 -0.022786319 1.2044481e-38 330 258
0.013924973 0.722 -0.022786319 1.1768254e-38 331 258
0.015190879 0.722 -0.022786319 9.9218363e-39 332 258
0.016456785 0.722 -0.022786319 1.2872096e-38 333 258
-0.038608398 0.73400003 -0.024451986 1.380808e-38 290 259
-0.037321456 0.73400003 -0.024451986 9.5667207e-39 291 259
-0.035838135 0.73000002 -0.024318734 1.2591894e-38 292 259
-0.034463517 0.72799999 -0.024252106 1.2868481e-38 293 259
-0.033187091 0.72799999 -0.024252106 1.2589024e-38 294 259
-0.03186683 0.727 -0.024218792 1.2404632e-38 295 259
-0.030508002 0.72500002 -0.024152167 1.240356e-38 296 259
-0.029156178 0.72299999 -0.024085538 1.258795e-38 297 259
-0.027849946 0.722 -0.024052227 1.2222038e-38 298 259
-0.026510401 0.72000003 -0.0239856 1.2314235e-38 299 259
-0.025212931 0.71899998 -0.023952285 1.2407503e-38 300 259
-0.023952285 0.71899998 -0.023952285 1.2499699e-38 301 259
-0.02262852 0.71700001 -0.02388566 1.2592603e-38 302 259
-0.021371379 0.71700001 -0.02388566 1.2684799e-38 303 259
-0.020114239 0.71700001 -0.02388566 1.3053573e-38 304 259
-0.0188308 0.71600002 -0.023852346 1.3146127e-38 305 259
-0.017575413 0.71600002 -0.023852346 1.2963882e-38 306 259
-0.016320027 0.71600002 -0.023852346 1.277949e-38 307 259
-0.015022559 0.71399999 -0.02378572 1.3052837e-38 308 259
-0.013751393 0.713 -0.023752406 1.268406e-38 309 259
-0.012501267 0.713 -0.023752406 1.2774461e-38 310 259
-0.01121958 0.71100003 -0.023685781 1.2589714e-38 311 259
-0.0099729598 0.71100003 -0.023685781 1.2406043e-38 312 259
-0.0087263398 0.71100003 -0.023685781 1.231349e-38 313 259
-0.0074797203 0.71100003 -0.023685781 1.2406407e-38 314 259
-0.0062330998 0.71100003 -0.023685781 1.25908e-38 315 259
-0.0049864799 0.71100003 -0.023685781 1.2775547e-38 316 259
-0.0037398601 0.71100003 -0.023685781 1.2867743e-38 317 259
-0.0024932399 0.71100003 -0.023685781 1.2775897e-38 318 259
-0.00124662 0.71100003 -0.023685781 1.2591507e-38 319 259
0 0.71100003 -0.023685781 1.259079e-38 320 259
0.00124662 0.71100003 -0.023685781 1.2498596e-38 321 259
0.0024932399 0.71100003 -0.023685781 1.2406404e-38 322 259
0.0037398601 0.71100003 -0.023685781 1.24986e-38 323 259
0.0049864799 0.71100003 -0.023685781 1.2039427e-38 324 259
0.0062330998 0.71100003 -0.023685781 1.2223459e-38 325 259
0.0075007593 0.713 -0.023752406 1.231566e-38 326 259
0.0087877065 0.71600002 -0.023852346 1.231566e-38 327 259
0.01005712 0.71700001 -0.02388566 1.2132714e-38 328 259
0.01134582 0.71899998 -0.023952285 1.222491e-38 329 259
0.012624 0.72000003 -0.0239856 1.1950493e-38 330 259
0.0138864 0.72000003 -0.0239856 1.1950493e-38 331 259
0.015190879 0.722 -0.024052227 1.0565761e-38 332 259
0.016456785 0.722 -0.024052227 1.0750152e-38 333 259
0.017722692 0.722 -0.024052227 1.4740113e-38 334 259
-0.039840993 0.73299998 -0.025703866 1.6309606e-38 289 260
-0.038555797 0.73299998 -0.025703866 1.3715525e-38 290 260
-0.037270606 0.73299998 -0.025703866 9.7511133e-39 291 260
-0.035838135 0.73000002 -0.025598666 1.2780599e-38 292 260
-0.034463517 0.72799999 -0.025528532 1.1674251e-38 293 260
-0.033187091 0.72799999 -0.025528532 1.2680846e-38 294 260
-0.03186683 0.727 -0.025493465 1.2219869e-38 295 260
-0.030508002 0.72500002 -0.025423333 1.2310986e-38 296 260
-0.029156178 0.72299999 -0.025353199 1.2495736e-38 297 260
-0.027849946 0.722 -0.025318133 1.2313142e-38 298 260
-0.026510401 0.72000003 -0.025248 1.2313142e-38 299 260
-0.025212931 0.71899998 -0.025212931 1.2405701e-38 300 260
-0.023952285 0.71899998 -0.025212931 1.2497898e-38 301 260
-0.02262852 0.71700001 -0.0251428 1.2867758e-38 302 260
-0.021371379 0.71700001 -0.0251428 1.3144705e-38 303 260
-0.020086186 0.71600002 -0.025107734 1.2779878e-38 304 260
-0.0188308 0.71600002 -0.025107734 1.3240857e-38 305 260
-0.017575413 0.71600002 -0.025107734 1.2874595e-38 306 260
-0.016274439 0.71399999 -0.025037598 1.3058988e-38 307 260
-0.015022559 0.71399999 -0.025037598 1.2875311e-38 308 260
-0.013751393 0.713 -0.025002534 1.269128e-38 309 260
-0.012501267 0.713 -0.025002534 1.2780585e-38 310 260
-0.01121958 0.71100003 -0.024932399 1.1950465e-38 311 260
-0.0099729598 0.71100003 -0.024932399 1.2497881e-38 312 260
-0.0087263398 0.71100003 -0.024932399 1.2590435e-38 313 260
-0.0074797203 0.71100003 -0.024932399 1.2496086e-38 314 260
-0.0062330998 0.71100003 -0.024932399 1.2680477e-38 315 260
-0.0049864799 0.71100003 -0.024932399 1.2865945e-38 316 260
-0.0037398601 0.71100003 -0.024932399 1.295814e-38 317 260
-0.0024932399 0.71100003 -0.024932399 1.2866664e-38 318 260
-0.00124662 0.71100003 -0.024932399 1.2866664e-38 319 260
0 0.71100003 -0.024932399 1.2591156e-38 320 260
0.00124662 0.71100003 -0.024932399 1.24986e-38 321 260
0.0024932399 0.71100003 -0.024932399 1.2223095e-38 322 260
0.0037398601 0.71100003 -0.024932399 1.2223095e-38 323 260
0.0049864799 0.71100003 -0.024932399 1.2130543e-38 324 260
0.0062330998 0.71100003 -0.024932399 1.2222739e-38 325 260
0.0074797203 0.71100003 -0.024932399 1.2222742e-38 326 260
0.0087508867 0.713 -0.025002534 1.2222742e-38 327 260
0.010043093 0.71600002 -0.025107734 1.2223106e-38 328 260
0.01131426 0.71700001 -0.0251428 1.2407856e-38 329 260
0.012606465 0.71899998 -0.025212931 1.1949765e-38 330 260
0.013867113 0.71899998 -0.025212931 1.1857569e-38 331 260
0.0151488 0.72000003 -0.025248 1.1393357e-38 332 260
0.0164112 0.72000003 -0.025248 1.1208607e-38 333 260
0.017673599 0.72000003 -0.025248 1.3445055e-38 334 260
0.018935999 0.72000003 -0.025248 1.630312e-38 335 260
-0.037270606 0.73299998 -0.026989058 1.0028778e-38 291 261
-0.035887226 0.73100001 -0.026915418 1.3052504e-38 292 261
-0.034558199 0.73000002 -0.026878599 1.268372e-38 293 261
-0.033187091 0.72799999 -0.026804959 1.2404969e-38 294 261
-0.031779166 0.72500002 -0.026694499 1.2220578e-38 295 261
-0.030508002 0.72500002 -0.026694499 1.2310989e-38 296 261
-0.029156178 0.72299999 -0.026620859 1.2403184e-38 297 261
-0.027849946 0.722 -0.026584039 1.2219875e-38 298 261
-0.026510401 0.72000003 -0.026510401 1.2219875e-38 299 261
-0.025212931 0.71899998 -0.02647358 1.2312789e-38 300 261
-0.023952285 0.71899998 -0.02647358 1.2589378e-38 301 261
-0.02262852 0.71700001 -0.02639994 1.2500055e-38 302 261
-0.021371379 0.71700001 -0.02639994 1.305287e-38 303 261
-0.020086186 0.71600002 -0.026363119 1.2872797e-38 304 261
-0.0188308 0.71600002 -0.026363119 1.3425971e-38 305 261
-0.017526319 0.71399999 -0.026289478 1.3245173e-38 306 261
-0.016274439 0.71399999 -0.026289478 1.3429564e-38 307 261
-0.015001519 0.713 -0.026252659 1.3523539e-38 308 261
-0.013751393 0.713 -0.026252659 1.3431343e-38 309 261
-0.012501267 0.713 -0.026252659 1.3428823e-38 310 261
-0.01121958 0.71100003 -0.026179021 1.2414671e-38 311 261
-0.0099729598 0.71100003 -0.026179021 1.2592963e-38 312 261
-0.0087263398 0.71100003 -0.026179021 1.1671367e-38 313 261
-0.0074797203 0.71100003 -0.026179021 1.2404619e-38 314 261
-0.0062330998 0.71100003 -0.026179021 1.258865e-38 315 261
-0.0049864799 0.71100003 -0.026179021 1.2406054e-38 316 261
-0.0037345996 0.70999998 -0.026142199 1.2590447e-38 317 261
-0.0024897333 0.70999998 -0.026142199 1.2499683e-38 318 261
-0.0012448666 0.70999998 -0.026142199 1.2499683e-38 319 261
0 0.71100003 -0.026179021 1.2315288e-38 320 261
0.00124662 0.71100003 -0.026179021 1.2223092e-38 321 261
0.0024932399 0.71100003 -0.026179021 1.2315291e-38 322 261
0.0037398601 0.71100003 -0.026179021 1.2223095e-38 323 261
0.0049864799 0.71100003 -0.026179021 1.2130543e-38 324 261
0.0062330998 0.71100003 -0.026179021 1.2222739e-38 325 261
0.0074797203 0.71100003 -0.026179021 1.2222742e-38 326 261
0.0087263398 0.71100003 -0.026179021 1.2222742e-38 327 261
0.01001504 0.71399999 -0.026289478 1.2223109e-38 328 261
0.01129848 0.71600002 -0.026363119 1.2315305e-38 329 261
0.0125714 0.71700001 -0.02639994 1.1857566e-38 330 261
0.013867113 0.71899998 -0.02647358 1.1673535e-38 331 261
0.01512776 0.71899998 -0.02647358 1.1394793e-38 332 261
0.0164112 0.72000003 -0.026510401 1.0933815e-38 333 261
0.017673599 0.72000003 -0.026510401 1.2425143e-38 334 261
0.018935999 0.72000003 -0.026510401 1.6205162e-38 335 261
-0.035838135 0.73000002 -0.028158534 1.2960674e-38 292 262
-0.034463517 0.72799999 -0.028081384 1.2315305e-38 293 262
-0.033141505 0.727 -0.028042812 1.2222026e-38 294 262
-0.031779166 0.72500002 -0.027965667 1.1852884e-38 295 262
-0.030423839 0.72299999 -0.02788852 1.2310986e-38 296 262
-0.029115854 0.722 -0.027849946 1.2126953e-38 297 262
-0.027849946 0.722 -0.027849946 1.2310986e-38 298 262
-0.026510401 0.72000003 -0.027772799 1.2126953e-38 299 262
-0.025212931 0.71899998 -0.027734226 1.2128392e-38 300 262
-0.02388566 0.71700001 -0.027657079 1.2313142e-38 301 262
-0.02262852 0.71700001 -0.027657079 1.2407503e-38 302 262
-0.021371379 0.71700001 -0.027657079 1.2960677e-38 303 262
-0.020086186 0.71600002 -0.027618507 1.2962487e-38 304 262
-0.0188308 0.71600002 -0.027618507 1.3792608e-38 305 262
-0.017526319 0.71399999 -0.02754136 1.3430665e-38 306 262
-0.016274439 0.71399999 -0.02754136 1.4352261e-38 307 262
-0.015001519 0.713 -0.027502786 1.3619366e-38 308 262
-0.013751393 0.713 -0.027502786 1.3803758e-38 309 262
-0.0124662 0.71100003 -0.027425639 1.3804464e-38 310 262
-0.01121958 0.71100003 -0.027425639 1.2513726e-38 311 262
-0.0099729598 0.71100003 -0.027425639 1.296499e-38 312 262
-0.0087263398 0.71100003 -0.027425639 1.1305827e-38 313 262
-0.0074797203 0.71100003 -0.027425639 1.2312423e-38 314 262
-0.0062330998 0.71100003 -0.027425639 1.2312423e-38 315 262
-0.0049794666 0.70999998 -0.027387066 1.231314e-38 316 262
-0.0037345996 0.70999998 -0.027387066 1.2405335e-38 317 262
-0.0024897333 0.70999998 -0.027387066 1.2406051e-38 318 262
-0.0012448666 0.70999998 -0.027387066 1.2498607e-38 319 262
0 0.70999998 -0.027387066 1.2406407e-38 320 262
0.0012448666 0.70999998 -0.027387066 1.2222376e-38 321 262
0.0024897333 0.70999998 -0.027387066 1.2223095e-38 322 262
0.0037398601 0.71100003 -0.027425639 1.2130899e-38 323 262
0.0049864799 0.71100003 -0.027425639 1.2038348e-38 324 262
0.0062330998 0.71100003 -0.027425639 1.2130543e-38 325 262
0.0074797203 0.71100003 -0.027425639 1.2222739e-38 326 262
0.0087263398 0.71100003 -0.027425639 1.2222739e-38 327 262
0.01001504 0.71399999 -0.02754136 1.2222386e-38 328 262
0.01129848 0.71600002 -0.027618507 1.2222386e-38 329 262
0.0125714 0.71700001 -0.027657079 1.1856128e-38 330 262
0.013828539 0.71700001 -0.027657079 1.1763931e-38 331 262
0.01512776 0.71899998 -0.027734226 1.1488424e-38 332 262
0.016388407 0.71899998 -0.027734226 1.0750859e-38 333 262
0.017649053 0.71899998 -0.027734226 1.1774731e-38 334 262
0.018909698 0.71899998 -0.027734226 1.6200121e-38 335 262
-0.035838135 0.73000002 -0.029438468 1.2870632e-38 292 263
-0.03441618 0.727 -0.029317487 1.2225263e-38 293 263
-0.033141505 0.727 -0.029317487 1.2314936e-38 294 263
-0.031779166 0.72500002 -0.029236834 1.1946152e-38 295 263
-0.030423839 0.72299999 -0.029156178 1.2128748e-38 296 263
-0.029115854 0.722 -0.029115854 1.1852161e-38 297 263
-0.027849946 0.722 -0.029115854 1.2035476e-38 298 263
-0.026510401 0.72000003 -0.029035201 1.1943281e-38 299 263
-0.025212931 0.71899998 -0.028994869 1.1944361e-38 300 263
-0.02388566 0.71700001 -0.028914221 1.2220588e-38 301 263
-0.022596961 0.71600002 -0.028873893 1.2314586e-38 302 263
-0.021341572 0.71600002 -0.028873893 1.2775562e-38 303 263
-0.020086186 0.71600002 -0.028873893 1.268626e-38 304 263
-0.0188308 0.71600002 -0.028873893 1.3423826e-38 305 263
-0.017526319 0.71399999 -0.028793238 1.3430312e-38 306 263
-0.016251646 0.713 -0.028752912 1.3983486e-38 307 263
-0.015001519 0.713 -0.028752912 1.3710489e-38 308 263
-0.01371282 0.71100003 -0.028672259 1.4171467e-38 309 263
-0.0124662 0.71100003 -0.028672259 1.3991023e-38 310 263
-0.01121958 0.71100003 -0.028672259 1.3253458e-38 311 263
-0.0099729598 0.71100003 -0.028672259 1.3244103e-38 312 263
-0.0087263398 0.71100003 -0.028672259 1.1123604e-38 313 263
-0.0074797203 0.71100003 -0.028672259 1.2588297e-38 314 263
-0.0062243328 0.70999998 -0.028631933 1.231207e-38 315 263
-0.0049794666 0.70999998 -0.028631933 1.2219869e-38 316 263
-0.0037345996 0.70999998 -0.028631933 1.2219869e-38 317 263
-0.0024897333 0.70999998 -0.028631933 1.2220944e-38 318 263
-0.0012448666 0.70999998 -0.028631933 1.2220944e-38 319 263
0 0.70999998 -0.028631933 1.2037629e-38 320 263
0.0012448666 0.70999998 -0.028631933 1.2129824e-38 321 263
0.0024897333 0.70999998 -0.028631933 1.2037626e-38 322 263
0.0037398601 0.71100003 -0.028672259 1.2037626e-38 323 263
0.0049864799 0.71100003 -0.028672259 1.2038348e-38 324 263
0.0062330998 0.71100003 -0.028672259 1.2130543e-38 325 263
0.0074797203 0.71100003 -0.028672259 1.1947231e-38 326 263
0.0087263398 0.71100003 -0.028672259 1.1947231e-38 327 263
0.01001504 0.71399999 -0.028793238 1.1946878e-38 328 263
0.01129848 0.71600002 -0.028873893 1.1946878e-38 329 263
0.012553867 0.71600002 -0.028873893 1.1671017e-38 330 263
0.013828539 0.71700001 -0.028914221 1.1671017e-38 331 263
0.015085679 0.71700001 -0.028914221 1.1396225e-38 332 263
0.016388407 0.71899998 -0.028994869 1.1027082e-38 333 263
0.017649053 0.71899998 -0.028994869 1.149526e-38 334 263
0.018935999 0.72000003 -0.029035201 1.5920292e-38 335 263
-0.035690852 0.727 -0.030592158 1.2962472e-38 292 264
-0.03441618 0.727 -0.030592158 1.2501854e-38 293 264
-0.033050332 0.72500002 -0.030508002 1.2499683e-38 294 264
-0.031691495 0.72299999 -0.030423839 1.2130899e-38 295 264
-0.030423839 0.72299999 -0.030423839 1.2128745e-38 296 264
-0.029115854 0.722 -0.030381758 1.1944714e-38 297 264
-0.027849946 0.722 -0.030381758 1.1852164e-38 298 264
-0.026510401 0.72000003 -0.0302976 1.1852164e-38 299 264
-0.0251428 0.71700001 -0.030171359 1.1944361e-38 300 264
-0.023852346 0.71600002 -0.03012928 1.2128392e-38 301 264
-0.022596961 0.71600002 -0.03012928 1.2129121e-38 302 264
-0.021341572 0.71600002 -0.03012928 1.2682295e-38 303 264
-0.020086186 0.71600002 -0.03012928 1.2409318e-38 304 264
-0.0188308 0.71600002 -0.03012928 1.3239078e-38 305 264
-0.017526319 0.71399999 -0.030045118 1.2968258e-38 306 264
-0.016251646 0.713 -0.030003037 1.3521432e-38 307 264
-0.014959441 0.71100003 -0.029918881 1.3247736e-38 308 264
-0.01371282 0.71100003 -0.029918881 1.3800908e-38 309 264
-0.0124662 0.71100003 -0.029918881 1.3620464e-38 310 264
-0.01121958 0.71100003 -0.029918881 1.3435714e-38 311 264
-0.0099729598 0.71100003 -0.029918881 1.315335e-38 312 264
-0.0087263398 0.71100003 -0.029918881 1.1125046e-38 313 264
-0.0074691991 0.70999998 -0.029876797 1.2589733e-38 314 264
-0.0062243328 0.70999998 -0.029876797 1.2220591e-38 315 264
-0.0049794666 0.70999998 -0.029876797 1.2220225e-38 316 264
-0.0037345996 0.70999998 -0.029876797 1.2128029e-38 317 264
-0.0024897333 0.70999998 -0.029876797 1.1852882e-38 318 264
-0.0012448666 0.70999998 -0.029876797 1.1852882e-38 319 264
0 0.70999998 -0.029876797 1.1852882e-38 320 264
0.0012448666 0.70999998 -0.029876797 1.1945077e-38 321 264
0.0024897333 0.70999998 -0.029876797 1.1852884e-38 322 264
0.0037398601 0.71100003 -0.029918881 1.194508e-38 323 264
0.0049864799 0.71100003 -0.029918881 1.1762487e-38 324 264
0.0062330998 0.71100003 -0.029918881 1.1854682e-38 325 264
0.0074797203 0.71100003 -0.029918881 1.1854682e-38 326 264
0.0087508867 0.713 -0.030003037 1.1854682e-38 327 264
0.01001504 0.71399999 -0.030045118 1.1854685e-38 328 264
0.01129848 0.71600002 -0.03012928 1.1854685e-38 329 264
0.012553867 0.71600002 -0.03012928 1.148627e-38 330 264
0.013828539 0.71700001 -0.030171359 1.148627e-38 331 264
0.015085679 0.71700001 -0.030171359 1.1395872e-38 332 264
0.016388407 0.71899998 -0.030255521 1.1211481e-38 333 264
0.017649053 0.71899998 -0.030255521 1.1493107e-38 334 264
0.018909698 0.71899998 -0.030255521 1.5365322e-38 335 264
0.020170346 0.71899998 -0.030255521 1.6123398e-38 336 264
-0.036965527 0.727 -0.03186683 1.1229839e-38 291 265
-0.035690852 0.727 -0.03186683 1.3055388e-38 292 265
-0.034321502 0.72500002 -0.031779166 1.2594768e-38 293 265
-0.033050332 0.72500002 -0.031779166 1.2409651e-38 294 265
-0.031691495 0.72299999 -0.031691495 1.1856479e-38 295 265
-0.030381758 0.722 -0.031647664 1.2037997e-38 296 265
-0.029115854 0.722 -0.031647664 1.1761412e-38 297 265
-0.027849946 0.722 -0.031647664 1.1852884e-38 298 265
-0.026510401 0.72000003 -0.03156 1.1760687e-38 299 265
-0.0251428 0.71700001 -0.031428497 1.1852519e-38 300 265
-0.023852346 0.71600002 -0.031384666 1.1944714e-38 301 265
-0.022596961 0.71600002 -0.031384666 1.2220588e-38 302 265
-0.021341572 0.71600002 -0.031384666 1.2497534e-38 303 265
-0.020086186 0.71600002 -0.031384666 1.2406434e-38 304 265
-0.0188308 0.71600002 -0.031384666 1.3051803e-38 305 265
-0.017526319 0.71399999 -0.031296998 1.250368e-38 306 265
-0.016251646 0.713 -0.031253166 1.3056853e-38 307 265
-0.014959441 0.71100003 -0.031165501 1.269024e-38 308 265
-0.01371282 0.71100003 -0.031165501 1.333561e-38 309 265
-0.0124662 0.71100003 -0.031165501 1.2970776e-38 310 265
-0.01121958 0.71100003 -0.031165501 1.2786383e-38 311 265
-0.0099729598 0.71100003 -0.031165501 1.296681e-38 312 265
-0.0087263398 0.71100003 -0.031165501 1.1952658e-38 313 265
-0.0074691991 0.70999998 -0.031121666 1.2589743e-38 314 265
-0.0062243328 0.70999998 -0.031121666 1.2036928e-38 315 265
-0.0049794666 0.70999998 -0.031121666 1.2128029e-38 316 265
-0.0037345996 0.70999998 -0.031121666 1.2035474e-38 317 265
-0.0024897333 0.70999998 -0.031121666 1.1760685e-38 318 265
-0.0012448666 0.70999998 -0.031121666 1.1760685e-38 319 265
0 0.70999998 -0.031121666 1.1852161e-38 320 265
0.0012448666 0.70999998 -0.031121666 1.1852161e-38 321 265
0.0024897333 0.70999998 -0.031121666 1.1760685e-38 322 265
0.0037398601 0.71100003 -0.031165501 1.1945077e-38 323 265
0.0049864799 0.71100003 -0.031165501 1.1670288e-38 324 265
0.0062330998 0.71100003 -0.031165501 1.1762484e-38 325 265
0.0074797203 0.71100003 -0.031165501 1.185468e-38 326 265
0.0087263398 0.71100003 -0.031165501 1.185468e-38 327 265
0.010001013 0.713 -0.031253166 1.1579174e-38 328 265
0.011266919 0.71399999 -0.031296998 1.148662e-38 329 265
0.012553867 0.71600002 -0.031384666 1.139371e-38 330 265
0.013828539 0.71700001 -0.031428497 1.1577742e-38 331 265
0.015085679 0.71700001 -0.031428497 1.1486626e-38 332 265
0.016342819 0.71700001 -0.031428497 1.1671017e-38 333 265
0.017599959 0.71700001 -0.031428497 1.1584575e-38 334 265
0.018857099 0.71700001 -0.031428497 1.4903618e-38 335 265
0.020114239 0.71700001 -0.031428497 1.5939004e-38 336 265
-0.036965527 0.727 -0.033141505 1.132383e-38 291 266
-0.035690852 0.727 -0.033141505 1.2966047e-38 292 266
-0.034321502 0.72500002 -0.033050332 1.2873851e-38 293 266
-0.033050332 0.72500002 -0.033050332 1.2869884e-38 294 266
-0.031691495 0.72299999 -0.032959159 1.2501107e-38 295 266
-0.030381758 0.722 -0.032913569 1.2406404e-38 296 266
-0.029115854 0.722 -0.032913569 1.2037983e-38 297 266
-0.027849946 0.722 -0.032913569 1.2220578e-38 298 266
-0.026510401 0.72000003 -0.0328224 1.2035831e-38 299 266
-0.0251428 0.71700001 -0.032685637 1.2127308e-38 300 266
-0.023852346 0.71600002 -0.032640055 1.2127308e-38 301 266
-0.022596961 0.71600002 -0.032640055 1.2219875e-38 302 266
-0.021341572 0.71600002 -0.032640055 1.2404266e-38 303 266
-0.020086186 0.71600002 -0.032640055 1.2220613e-38 304 266
-0.0188308 0.71600002 -0.032640055 1.2589396e-38 305 266
-0.017526319 0.71399999 -0.032548878 1.2316068e-38 306 266
-0.016274439 0.71399999 -0.032548878 1.2592655e-38 307 266
-0.014959441 0.71100003 -0.032412119 1.2502611e-38 308 266
-0.01371282 0.71100003 -0.032412119 1.2963589e-38 309 266
-0.0124662 0.71100003 -0.032412119 1.2874613e-38 310 266
-0.01121958 0.71100003 -0.032412119 1.2690223e-38 311 266
-0.0099589331 0.70999998 -0.032366529 1.2595863e-38 312 266
-0.0087140659 0.70999998 -0.032366529 1.1950493e-38 313 266
-0.0074691991 0.70999998 -0.032366529 1.2314586e-38 314 266
-0.0062243328 0.70999998 -0.032366529 1.1945802e-38 315 266
-0.0049794666 0.70999998 -0.032366529 1.1944713e-38 316 266
-0.0037345996 0.70999998 -0.032366529 1.1852519e-38 317 266
-0.00248272 0.708 -0.03227536 1.1577371e-38 318 266
-0.00124136 0.708 -0.03227536 1.1577371e-38 319 266
0 0.70999998 -0.032366529 1.1393704e-38 320 266
0.0012448666 0.70999998 -0.032366529 1.1393704e-38 321 266
0.0024897333 0.70999998 -0.032366529 1.1394424e-38 322 266
0.0037398601 0.71100003 -0.032412119 1.1579174e-38 323 266
0.0049864799 0.71100003 -0.032412119 1.1487339e-38 324 266
0.0062330998 0.71100003 -0.032412119 1.1395143e-38 325 266
0.0074797203 0.71100003 -0.032412119 1.148662e-38 326 266
0.0087263398 0.71100003 -0.032412119 1.1579174e-38 327 266
0.010001013 0.713 -0.032503292 1.1394427e-38 328 266
0.011266919 0.71399999 -0.032548878 1.130223e-38 329 266
0.012553867 0.71600002 -0.032640055 1.1209681e-38 330 266
0.013828539 0.71700001 -0.032685637 1.1301877e-38 331 266
0.015085679 0.71700001 -0.032685637 1.1027815e-38 332 266
0.016342819 0.71700001 -0.032685637 1.1857216e-38 333 266
0.017599959 0.71700001 -0.032685637 1.1582784e-38 334 266
0.018857099 0.71700001 -0.032685637 1.462524e-38 335 266
0.020114239 0.71700001 -0.032685637 1.5937557e-38 336 266
-0.036965527 0.727 -0.03441618 1.1694413e-38 291 267
-0.035690852 0.727 -0.03441618 1.2782034e-38 292 267
-0.034321502 0.72500002 -0.034321502 1.2597284e-38 293 267
-0.033050332 0.72500002 -0.034321502 1.2780229e-38 294 267
-0.031691495 0.72299999 -0.03422682 1.2134859e-38 295 267
-0.030423839 0.72299999 -0.03422682 1.2500049e-38 296 267
-0.029115854 0.722 -0.034179479 1.203943e-38 297 267
-0.027849946 0.722 -0.034179479 1.231314e-38 298 267
-0.026510401 0.72000003 -0.034084801 1.2220944e-38 299 267
-0.025212931 0.71899998 -0.03403746 1.2311339e-38 300 267
-0.023852346 0.71600002 -0.03389544 1.2311339e-38 301 267
-0.022596961 0.71600002 -0.03389544 1.2220225e-38 302 267
-0.021341572 0.71600002 -0.03389544 1.2312421e-38 303 267
-0.020086186 0.71600002 -0.03389544 1.2312789e-38 304 267
-0.0188308 0.71600002 -0.03389544 1.249718e-38 305 267
-0.017526319 0.71399999 -0.033800758 1.2314957e-38 306 267
-0.016251646 0.713 -0.033753417 1.2591544e-38 307 267
-0.014959441 0.71100003 -0.033658739 1.2592266e-38 308 267
-0.01371282 0.71100003 -0.033658739 1.2776658e-38 309 267
-0.0124662 0.71100003 -0.033658739 1.2501869e-38 310 267
-0.01121958 0.71100003 -0.033658739 1.2409674e-38 311 267
-0.0099589331 0.70999998 -0.033611398 1.250007e-38 312 267
-0.0087140659 0.70999998 -0.033611398 1.2131289e-38 313 267
-0.0074691991 0.70999998 -0.033611398 1.2129477e-38 314 267
-0.0062243328 0.70999998 -0.033611398 1.1944727e-38 315 267
-0.0049794666 0.70999998 -0.033611398 1.1852519e-38 316 267
-0.0037345996 0.70999998 -0.033611398 1.1760324e-38 317 267
-0.00248272 0.708 -0.033516716 1.1485177e-38 318 267
-0.00124136 0.708 -0.033516716 1.1485177e-38 319 267
0 0.70999998 -0.033611398 1.1392983e-38 320 267
0.0012448666 0.70999998 -0.033611398 1.1485177e-38 321 267
0.0024897333 0.70999998 -0.033611398 1.139406e-38 322 267
0.0037398601 0.71100003 -0.033658739 1.1578093e-38 323 267
0.0049864799 0.71100003 -0.033658739 1.1485177e-38 324 267
0.0062330998 0.71100003 -0.033658739 1.1485177e-38 325 267
0.0074797203 0.71100003 -0.033658739 1.139406e-38 326 267
0.0087263398 0.71100003 -0.033658739 1.1301864e-38 327 267
0.010001013 0.713 -0.033753417 1.1392625e-38 328 267
0.011266919 0.71399999 -0.033800758 1.1392625e-38 329 267
0.012553867 0.71600002 -0.03389544 1.1116764e-38 330 267
0.013828539 0.71700001 -0.033942781 1.1301155e-38 331 267
0.015085679 0.71700001 -0.033942781 1.1394793e-38 332 267
0.016342819 0.71700001 -0.033942781 1.2040162e-38 333 267
0.017599959 0.71700001 -0.033942781 1.1583135e-38 334 267
0.018857099 0.71700001 -0.033942781 1.4717786e-38 335 267
0.020114239 0.71700001 -0.033942781 1.5844993e-38 336 267
-0.036965527 0.727 -0.035690852 1.2251181e-38 291 268
-0.035690852 0.727 -0.035690852 1.2873873e-38 292 268
-0.034321502 0.72500002 -0.035592668 1.2597286e-38 293 268
-0.033050332 0.72500002 -0.035592668 1.2870627e-38 294 268
-0.031691495 0.72299999 -0.035494477 1.2410007e-38 295 268
-0.030423839 0.72299999 -0.035494477 1.2682995e-38 296 268
-0.029115854 0.722 -0.035445385 1.2498603e-38 297 268
-0.027849946 0.722 -0.035445385 1.2497884e-38 298 268
-0.026510401 0.72000003 -0.035347197 1.2405688e-38 299 268
-0.025212931 0.71899998 -0.035298105 1.2221297e-38 300 268
-0.023852346 0.71600002 -0.035150826 1.2221297e-38 301 268
-0.022596961 0.71600002 -0.035150826 1.2220222e-38 302 268
-0.021341572 0.71600002 -0.035150826 1.2312418e-38 303 268
-0.020086186 0.71600002 -0.035150826 1.2129474e-38 304 268
-0.0188308 0.71600002 -0.035150826 1.222167e-38 305 268
-0.017526319 0.71399999 -0.035052639 1.203837e-38 306 268
-0.016251646 0.713 -0.035003547 1.2314957e-38 307 268
-0.014959441 0.71100003 -0.034905359 1.2131655e-38 308 268
-0.01371282 0.71100003 -0.034905359 1.2131655e-38 309 268
-0.0124662 0.71100003 -0.034905359 1.2223131e-38 310 268
-0.01121958 0.71100003 -0.034905359 1.2130936e-38 311 268
-0.0099589331 0.70999998 -0.034856264 1.2222761e-38 312 268
-0.0087140659 0.70999998 -0.034856264 1.1946175e-38 313 268
-0.0074691991 0.70999998 -0.034856264 1.2220588e-38 314 268
-0.0062243328 0.70999998 -0.034856264 1.1944361e-38 315 268
-0.0049794666 0.70999998 -0.034856264 1.1852519e-38 316 268
-0.0037345996 0.70999998 -0.034856264 1.1760324e-38 317 268
-0.0024897333 0.70999998 -0.034856264 1.1484459e-38 318 268
-0.0012448666 0.70999998 -0.034856264 1.1484459e-38 319 268
0 0.70999998 -0.034856264 1.1391906e-38 320 268
0.0012448666 0.70999998 -0.034856264 1.1391906e-38 321 268
0.0024897333 0.70999998 -0.034856264 1.1391909e-38 322 268
0.0037398601 0.71100003 -0.034905359 1.1484105e-38 323 268
0.0049864799 0.71100003 -0.034905359 1.1116761e-38 324 268
0.0062330998 0.71100003 -0.034905359 1.1116761e-38 325 268
0.0074797203 0.71100003 -0.034905359 1.1300432e-38 326 268
0.0087508867 0.713 -0.035003547 1.1300432e-38 327 268
0.01001504 0.71399999 -0.035052639 1.1117117e-38 328 268
0.01129848 0.71600002 -0.035150826 1.1117117e-38 329 268
0.012553867 0.71600002 -0.035150826 1.1025645e-38 330 268
0.013809253 0.71600002 -0.035150826 1.1394427e-38 331 268
0.01506464 0.71600002 -0.035150826 1.1304395e-38 332 268
0.016342819 0.71700001 -0.035199918 1.1857569e-38 333 268
0.017599959 0.71700001 -0.035199918 1.1767524e-38 334 268
0.018857099 0.71700001 -0.035199918 1.4994371e-38 335 268
-0.035690852 0.727 -0.036965527 1.3151902e-38 292 269
-0.034321502 0.72500002 -0.036863834 1.2045913e-38 293 269
-0.033050332 0.72500002 -0.036863834 1.2872424e-38 294 269
-0.031779166 0.72500002 -0.036863834 1.2227055e-38 295 269
-0.030423839 0.72299999 -0.036762137 1.277591e-38 296 269
-0.029115854 0.722 -0.03671129 1.2683714e-38 297 269
-0.027849946 0.722 -0.03671129 1.2591156e-38 298 269
-0.026510401 0.72000003 -0.036609601 1.24986e-38 299 269
-0.025212931 0.71899998 -0.036558751 1.2405688e-38 300 269
-0.02388566 0.71700001 -0.036457058 1.2313493e-38 301 269
-0.02262852 0.71700001 -0.036457058 1.2312774e-38 302 269
-0.021371379 0.71700001 -0.036457058 1.2312774e-38 303 269
-0.020086186 0.71600002 -0.036406212 1.2129827e-38 304 269
-0.0188308 0.71600002 -0.036406212 1.2129827e-38 305 269
-0.017526319 0.71399999 -0.036304519 1.2129477e-38 306 269
