# .PCD v.7 - Point Cloud Data file format
FIELDS x y z rgb imX imY
SIZE 4 4 4 4 4 4
TYPE F F F F F F
COUNT 1 1 1 1 1 1
WIDTH 837
HEIGHT 1
VIEWPOINT 0 0 0 1 0 0 0
POINTS 837
DATA ascii
-0.030508002 0.72500002 -0.015254001 1.360638e-38 296 252
-0.029156178 0.72299999 -0.015211919 1.3329434e-38 297 252
-0.02788852 0.72299999 -0.015211919 1.3235802e-38 298 252
-0.026584039 0.722 -0.015190879 1.3143606e-38 299 252
-0.025318133 0.722 -0.015190879 1.3326919e-38 300 252
-0.0239856 0.72000003 -0.0151488 1.3326919e-38 301 252
-0.022723202 0.72000003 -0.0151488 1.3234723e-38 302 252
-0.021430992 0.71899998 -0.01512776 1.3050692e-38 303 252
-0.020170346 0.71899998 -0.01512776 1.3050692e-38 304 252
-0.018909698 0.71899998 -0.01512776 1.3050692e-38 305 252
-0.017649053 0.71899998 -0.01512776 1.3051055e-38 306 252
-0.016388407 0.71899998 -0.01512776 1.3051055e-38 307 252
-0.015085679 0.71700001 -0.015085679 1.3143606e-38 308 252
-0.013828539 0.71700001 -0.015085679 1.3235802e-38 309 252
-0.0125714 0.71700001 -0.015085679 1.3420188e-38 310 252
-0.01131426 0.71700001 -0.015085679 1.3512383e-38 311 252
-0.01005712 0.71700001 -0.015085679 1.3512737e-38 312 252
-0.0087999795 0.71700001 -0.015085679 1.3420541e-38 313 252
-0.0075428397 0.71700001 -0.015085679 1.3418749e-38 314 252
-0.0062857 0.71700001 -0.015085679 1.3234357e-38 315 252
-0.0050285598 0.71700001 -0.015085679 1.3141455e-38 316 252
-0.0037714199 0.71700001 -0.015085679 1.2957063e-38 317 252
-0.0025142799 0.71700001 -0.015085679 1.2589733e-38 318 252
-0.0012553866 0.71600002 -0.01506464 1.2589733e-38 319 252
0 0.71600002 -0.01506464 1.2406431e-38 320 252
0.00125714 0.71700001 -0.015085679 1.2498627e-38 321 252
0.0025142799 0.71700001 -0.015085679 1.2133443e-38 322 252
0.0037714199 0.71700001 -0.015085679 1.2409671e-38 323 252
0.0050425865 0.71899998 -0.01512776 1.2044484e-38 324 252
0.0063120001 0.72000003 -0.0151488 1.213668e-38 325 252
0.0075954394 0.722 -0.015190879 1.1953011e-38 326 252
0.0088613462 0.722 -0.015190879 1.1953011e-38 327 252
0.01014128 0.72299999 -0.015211919 1.1124342e-38 328 252
0.01140894 0.72299999 -0.015211919 1.0939951e-38 329 252
-0.039732285 0.73100001 -0.016661927 1.6310692e-38 289 253
-0.038450599 0.73100001 -0.016661927 1.3165241e-38 290 253
-0.037118066 0.73000002 -0.016639132 1.0123144e-38 291 253
-0.035838135 0.73000002 -0.016639132 1.4260066e-38 292 253
-0.034463517 0.72799999 -0.016593546 1.4721404e-38 293 253
-0.033141505 0.727 -0.016570752 1.3886955e-38 294 253
-0.03186683 0.727 -0.016570752 1.3241585e-38 295 253
-0.030508002 0.72500002 -0.016525166 1.3514197e-38 296 253
-0.029156178 0.72299999 -0.01647958 1.2961024e-38 297 253
-0.027849946 0.722 -0.016456785 1.3326922e-38 298 253
-0.026584039 0.722 -0.016456785 1.3234367e-38 299 253
-0.025248 0.72000003 -0.0164112 1.3234367e-38 300 253
-0.023952285 0.71899998 -0.016388407 1.3050336e-38 301 253
-0.022691639 0.71899998 -0.016388407 1.3050339e-38 302 253
-0.021430992 0.71899998 -0.016388407 1.3050339e-38 303 253
-0.020170346 0.71899998 -0.016388407 1.3141455e-38 304 253
-0.018857099 0.71700001 -0.016342819 1.3141455e-38 305 253
-0.017599959 0.71700001 -0.016342819 1.3050336e-38 306 253
-0.016342819 0.71700001 -0.016342819 1.295814e-38 307 253
-0.015085679 0.71700001 -0.016342819 1.314109e-38 308 253
-0.013828539 0.71700001 -0.016342819 1.3233285e-38 309 253
-0.0125714 0.71700001 -0.016342819 1.3417314e-38 310 253
-0.01131426 0.71700001 -0.016342819 1.3417314e-38 311 253
-0.01005712 0.71700001 -0.016342819 1.3418751e-38 312 253
-0.0087877065 0.71600002 -0.016320027 1.3418751e-38 313 253
-0.00753232 0.71600002 -0.016320027 1.3143604e-38 314 253
-0.0062769335 0.71600002 -0.016320027 1.2959212e-38 315 253
-0.0050215465 0.71600002 -0.016320027 1.2774465e-38 316 253
-0.00376616 0.71600002 -0.016320027 1.2774465e-38 317 253
-0.0025107733 0.71600002 -0.016320027 1.259008e-38 318 253
-0.0012553866 0.71600002 -0.016320027 1.259008e-38 319 253
0 0.71600002 -0.016320027 1.2314942e-38 320 253
0.0012553866 0.71600002 -0.016320027 1.2314942e-38 321 253
0.0025142799 0.71700001 -0.016342819 1.222491e-38 322 253
0.0037714199 0.71700001 -0.016342819 1.2409301e-38 323 253
0.0050285598 0.71700001 -0.016342819 1.204376e-38 324 253
0.0062857 0.71700001 -0.016342819 1.204376e-38 325 253
0.0075743999 0.72000003 -0.0164112 1.1863687e-38 326 253
0.0088367993 0.72000003 -0.0164112 1.1955883e-38 327 253
0.01014128 0.72299999 -0.01647958 1.1862611e-38 328 253
0.01140894 0.72299999 -0.01647958 1.167822e-38 329 253
-0.041013971 0.73100001 -0.017943613 1.7140456e-38 288 254
-0.039732285 0.73100001 -0.017943613 1.4651174e-38 289 254
-0.038450599 0.73100001 -0.017943613 1.2607754e-38 290 254
-0.037118066 0.73000002 -0.017919067 1.0763842e-38 291 254
-0.035838135 0.73000002 -0.017919067 1.3986357e-38 292 254
-0.034463517 0.72799999 -0.017869972 1.3893801e-38 293 254
-0.033141505 0.727 -0.017845426 1.3609293e-38 294 254
-0.03186683 0.727 -0.017845426 1.324015e-38 295 254
-0.030508002 0.72500002 -0.017796334 1.3237973e-38 296 254
-0.029156178 0.72299999 -0.017747238 1.2961027e-38 297 254
-0.027849946 0.722 -0.017722692 1.3143251e-38 298 254
-0.026510401 0.72000003 -0.017673599 1.3051055e-38 299 254
-0.025248 0.72000003 -0.017673599 1.3051058e-38 300 254
-0.023952285 0.71899998 -0.017649053 1.2958862e-38 301 254
-0.02262852 0.71700001 -0.017599959 1.2958862e-38 302 254
-0.021371379 0.71700001 -0.017599959 1.2958862e-38 303 254
-0.020170346 0.71899998 -0.017649053 1.2866666e-38 304 254
-0.018857099 0.71700001 -0.017599959 1.2866666e-38 305 254
-0.017599959 0.71700001 -0.017599959 1.2774115e-38 306 254
-0.016342819 0.71700001 -0.017599959 1.2590084e-38 307 254
-0.015085679 0.71700001 -0.017599959 1.2497534e-38 308 254
-0.013809253 0.71600002 -0.017575413 1.2589731e-38 309 254
-0.012553867 0.71600002 -0.017575413 1.2589731e-38 310 254
-0.01129848 0.71600002 -0.017575413 1.2773762e-38 311 254
-0.010043093 0.71600002 -0.017575413 1.2866311e-38 312 254
-0.0087877065 0.71600002 -0.017575413 1.2958506e-38 313 254
-0.00753232 0.71600002 -0.017575413 1.3051408e-38 314 254
-0.0062769335 0.71600002 -0.017575413 1.2959212e-38 315 254
-0.0050215465 0.71600002 -0.017575413 1.3142162e-38 316 254
-0.00376616 0.71600002 -0.017575413 1.3049967e-38 317 254
-0.0025107733 0.71600002 -0.017575413 1.2865942e-38 318 254
-0.0012553866 0.71600002 -0.017575413 1.2773745e-38 319 254
0 0.71600002 -0.017575413 1.2498251e-38 320 254
0.0012553866 0.71600002 -0.017575413 1.2590447e-38 321 254
0.0025107733 0.71600002 -0.017575413 1.2315307e-38 322 254
0.00376616 0.71600002 -0.017575413 1.2499699e-38 323 254
0.0050285598 0.71700001 -0.017599959 1.2316752e-38 324 254
0.0062857 0.71700001 -0.017599959 1.2685535e-38 325 254
0.0075743999 0.72000003 -0.017673599 1.2228872e-38 326 254
0.0088367993 0.72000003 -0.017673599 1.2597655e-38 327 254
0.010127253 0.722 -0.017722692 1.2046646e-38 328 254
0.01139316 0.722 -0.017722692 1.2231396e-38 329 254
0.012606465 0.71899998 -0.017649053 1.1125063e-38 330 254
-0.041013971 0.73100001 -0.019225299 1.6955341e-38 288 255
-0.039732285 0.73100001 -0.019225299 1.3175681e-38 289 255
-0.038450599 0.73100001 -0.019225299 1.2235374e-38 290 255
-0.037118066 0.73000002 -0.019199001 1.1590005e-38 291 255
-0.035838135 0.73000002 -0.019199001 1.3982404e-38 292 255
-0.034463517 0.72799999 -0.0191464 1.40746e-38 293 255
-0.033141505 0.727 -0.019120099 1.333163e-38 294 255
-0.03186683 0.727 -0.019120099 1.2962487e-38 295 255
-0.030508002 0.72500002 -0.0190675 1.3145421e-38 296 255
-0.029156178 0.72299999 -0.019014901 1.2868476e-38 297 255
-0.027849946 0.722 -0.0189886 1.3051777e-38 298 255
-0.026510401 0.72000003 -0.018935999 1.2867745e-38 299 255
-0.025248 0.72000003 -0.018935999 1.2958862e-38 300 255
-0.02388566 0.71700001 -0.018857099 1.2958862e-38 301 255
-0.02262852 0.71700001 -0.018857099 1.2867745e-38 302 255
-0.021371379 0.71700001 -0.018857099 1.3051777e-38 303 255
-0.020114239 0.71700001 -0.018857099 1.277555e-38 304 255
-0.018857099 0.71700001 -0.018857099 1.25908e-38 305 255
-0.017599959 0.71700001 -0.018857099 1.2774115e-38 306 255
-0.016342819 0.71700001 -0.018857099 1.2497887e-38 307 255
-0.01506464 0.71600002 -0.0188308 1.2404972e-38 308 255
-0.013809253 0.71600002 -0.0188308 1.2312418e-38 309 255
-0.012553867 0.71600002 -0.0188308 1.258721e-38 310 255
-0.01129848 0.71600002 -0.0188308 1.2495014e-38 311 255
-0.010043093 0.71600002 -0.0188308 1.2588284e-38 312 255
-0.0087877065 0.71600002 -0.0188308 1.268048e-38 313 255
-0.00753232 0.71600002 -0.0188308 1.3050336e-38 314 255
-0.0062769335 0.71600002 -0.0188308 1.3050336e-38 315 255
-0.0050215465 0.71600002 -0.0188308 1.3051408e-38 316 255
-0.00376616 0.71600002 -0.0188308 1.2959212e-38 317 255
-0.0025107733 0.71600002 -0.0188308 1.2959212e-38 318 255
-0.00125188 0.71399999 -0.018778199 1.2590431e-38 319 255
0 0.71399999 -0.018778199 1.2407488e-38 320 255
0.0012553866 0.71600002 -0.0188308 1.2315291e-38 321 255
0.0025107733 0.71600002 -0.0188308 1.2314936e-38 322 255
0.00376616 0.71600002 -0.0188308 1.240749e-38 323 255
0.0050215465 0.71600002 -0.0188308 1.24075e-38 324 255
0.0062769335 0.71600002 -0.0188308 1.2500055e-38 325 255
0.0075428397 0.71700001 -0.018857099 1.2134159e-38 326 255
0.0087999795 0.71700001 -0.018857099 1.2226356e-38 327 255
0.010085173 0.71899998 -0.018909698 1.2136324e-38 328 255
0.01134582 0.71899998 -0.018909698 1.2413271e-38 329 255
0.012606465 0.71899998 -0.018909698 1.2047375e-38 330 255
0.013828539 0.71700001 -0.018857099 1.1770787e-38 331 255
0.015085679 0.71700001 -0.018857099 1.0673458e-38 332 255
-0.041013971 0.73100001 -0.020506985 1.6678755e-38 288 256
-0.039732285 0.73100001 -0.020506985 1.1607995e-38 289 256
-0.038450599 0.73100001 -0.020506985 1.2139576e-38 290 256
-0.037168913 0.73100001 -0.020506985 1.2139576e-38 291 256
-0.035838135 0.73000002 -0.020478934 1.3519264e-38 292 256
-0.034463517 0.72799999 -0.020422826 1.3426709e-38 293 256
-0.033141505 0.727 -0.020394772 1.3330904e-38 294 256
-0.03186683 0.727 -0.020394772 1.2962121e-38 295 256
-0.030508002 0.72500002 -0.020338668 1.3052507e-38 296 256
-0.029156178 0.72299999 -0.020282559 1.2867755e-38 297 256
-0.027849946 0.722 -0.020254506 1.2960304e-38 298 256
-0.026510401 0.72000003 -0.020198401 1.2868108e-38 299 256
-0.025212931 0.71899998 -0.020170346 1.3051777e-38 300 256
-0.02388566 0.71700001 -0.020114239 1.3051777e-38 301 256
-0.02262852 0.71700001 -0.020114239 1.296066e-38 302 256
-0.021371379 0.71700001 -0.020114239 1.3052857e-38 303 256
-0.020114239 0.71700001 -0.020114239 1.2868464e-38 304 256
-0.018857099 0.71700001 -0.020114239 1.277591e-38 305 256
-0.017575413 0.71600002 -0.020086186 1.277591e-38 306 256
-0.016320027 0.71600002 -0.020086186 1.2407488e-38 307 256
-0.01506464 0.71600002 -0.020086186 1.2406051e-38 308 256
-0.013809253 0.71600002 -0.020086186 1.2129824e-38 309 256
-0.012553867 0.71600002 -0.020086186 1.240354e-38 310 256
-0.01129848 0.71600002 -0.020086186 1.2126953e-38 311 256
-0.01001504 0.71399999 -0.020030079 1.240354e-38 312 256
-0.0087631596 0.71399999 -0.020030079 1.2495736e-38 313 256
-0.0075112795 0.71399999 -0.020030079 1.2774112e-38 314 256
-0.0062593995 0.71399999 -0.020030079 1.2958862e-38 315 256
-0.0050075199 0.71399999 -0.020030079 1.3051405e-38 316 256
-0.0037556398 0.71399999 -0.020030079 1.3051405e-38 317 256
-0.0025037599 0.71399999 -0.020030079 1.295921e-38 318 256
-0.00125188 0.71399999 -0.020030079 1.2867014e-38 319 256
0 0.71399999 -0.020030079 1.2315288e-38 320 256
0.00125188 0.71399999 -0.020030079 1.2315288e-38 321 256
0.0025037599 0.71399999 -0.020030079 1.2314936e-38 322 256
0.0037556398 0.71399999 -0.020030079 1.2314936e-38 323 256
0.0050215465 0.71600002 -0.020086186 1.2314586e-38 324 256
0.0062769335 0.71600002 -0.020086186 1.2314586e-38 325 256
0.00753232 0.71600002 -0.020086186 1.2224554e-38 326 256
0.0087877065 0.71600002 -0.020086186 1.2224554e-38 327 256
0.01005712 0.71700001 -0.020114239 1.2226359e-38 328 256
0.01131426 0.71700001 -0.020114239 1.2594781e-38 329 256
0.0125714 0.71700001 -0.020114239 1.2321085e-38 330 256
0.013828539 0.71700001 -0.020114239 1.2598031e-38 331 256
0.015085679 0.71700001 -0.020114239 1.0483665e-38 332 256
0.016456785 0.722 -0.020254506 1.269636e-38 333 256
-0.042469237 0.73400003 -0.021878093 1.7878374e-38 287 257
-0.041013971 0.73100001 -0.021788673 1.6309606e-38 288 257
-0.039732285 0.73100001 -0.021788673 1.0409086e-38 289 257
-0.038450599 0.73100001 -0.021788673 1.2043412e-38 290 257
-0.037118066 0.73000002 -0.021758866 1.2135608e-38 291 257
-0.035838135 0.73000002 -0.021758866 1.3146164e-38 292 257
-0.034463517 0.72799999 -0.021699252 1.2961771e-38 293 257
-0.033141505 0.727 -0.021669446 1.2959973e-38 294 257
-0.03186683 0.727 -0.021669446 1.2867778e-38 295 257
-0.030508002 0.72500002 -0.021609833 1.2867761e-38 296 257
-0.029156178 0.72299999 -0.021550218 1.2867761e-38 297 257
-0.027849946 0.722 -0.021520413 1.2684799e-38 298 257
-0.026510401 0.72000003 -0.021460801 1.2868831e-38 299 257
-0.025212931 0.71899998 -0.021430992 1.2961024e-38 300 257
-0.02388566 0.71700001 -0.021371379 1.3053579e-38 301 257
-0.02262852 0.71700001 -0.021371379 1.2962462e-38 302 257
-0.021371379 0.71700001 -0.021371379 1.2962462e-38 303 257
-0.020114239 0.71700001 -0.021371379 1.2962456e-38 304 257
-0.0188308 0.71600002 -0.021341572 1.2870261e-38 305 257
-0.017575413 0.71600002 -0.021341572 1.2870614e-38 306 257
-0.016320027 0.71600002 -0.021341572 1.2593667e-38 307 257
-0.01506464 0.71600002 -0.021341572 1.2500034e-38 308 257
-0.01377068 0.71399999 -0.021281958 1.2223448e-38 309 257
-0.012518799 0.71399999 -0.021281958 1.2496085e-38 310 257
-0.011266919 0.71399999 -0.021281958 1.2311696e-38 311 257
-0.01001504 0.71399999 -0.021281958 1.249537e-38 312 257
-0.0087631596 0.71399999 -0.021281958 1.249537e-38 313 257
-0.0075112795 0.71399999 -0.021281958 1.2497531e-38 314 257
-0.0062506334 0.713 -0.021252153 1.2774118e-38 315 257
-0.0050005065 0.713 -0.021252153 1.2867743e-38 316 257
-0.0037556398 0.71399999 -0.021281958 1.2867743e-38 317 257
-0.0025037599 0.71399999 -0.021281958 1.286774e-38 318 257
-0.00125188 0.71399999 -0.021281958 1.2591153e-38 319 257
0 0.71399999 -0.021281958 1.2407485e-38 320 257
0.00125188 0.71399999 -0.021281958 1.2407485e-38 321 257
0.0025037599 0.71399999 -0.021281958 1.2315291e-38 322 257
0.0037556398 0.71399999 -0.021281958 1.2223095e-38 323 257
0.0050215465 0.71600002 -0.021341572 1.2222742e-38 324 257
0.0062769335 0.71600002 -0.021341572 1.2222742e-38 325 257
0.00753232 0.71600002 -0.021341572 1.2315305e-38 326 257
0.0087877065 0.71600002 -0.021341572 1.2315305e-38 327 257
0.01005712 0.71700001 -0.021371379 1.2316752e-38 328 257
0.01131426 0.71700001 -0.021371379 1.2408948e-38 329 257
0.0125714 0.71700001 -0.021371379 1.2319276e-38 330 257
0.013828539 0.71700001 -0.021371379 1.2503667e-38 331 257
0.015190879 0.722 -0.021520413 1.0755204e-38 332 257
0.016456785 0.722 -0.021520413 1.1124345e-38 333 257
0.017722692 0.722 -0.021520413 1.4096924e-38 334 257
-0.042469237 0.73400003 -0.023165042 1.7695059e-38 287 258
-0.041126184 0.73299998 -0.023133477 1.6216329e-38 288 258
-0.039732285 0.73100001 -0.02307036 9.9473848e-39 289 258
-0.038450599 0.73100001 -0.02307036 1.1949049e-38 290 258
-0.037118066 0.73000002 -0.023038799 1.1949049e-38 291 258
-0.035838135 0.73000002 -0.023038799 1.2867758e-38 292 258
-0.034463517 0.72799999 -0.022975679 1.2867758e-38 293 258
-0.033141505 0.727 -0.022944121 1.277449e-38 294 258
-0.03186683 0.727 -0.022944121 1.277449e-38 295 258
-0.030508002 0.72500002 -0.022880999 1.2682648e-38 296 258
-0.029156178 0.72299999 -0.02281788 1.2774844e-38 297 258
-0.027849946 0.722 -0.022786319 1.2867755e-38 298 258
-0.026510401 0.72000003 -0.022723202 1.2867755e-38 299 258
-0.025212931 0.71899998 -0.022691639 1.2778078e-38 300 258
-0.02388566 0.71700001 -0.02262852 1.2962828e-38 301 258
-0.02262852 0.71700001 -0.02262852 1.3055388e-38 302 258
-0.021371379 0.71700001 -0.02262852 1.3240138e-38 303 258
-0.020114239 0.71700001 -0.02262852 1.305826e-38 304 258
-0.0188308 0.71600002 -0.022596961 1.305826e-38 305 258
-0.017575413 0.71600002 -0.022596961 1.2875301e-38 306 258
-0.016320027 0.71600002 -0.022596961 1.2598356e-38 307 258
-0.015022559 0.71399999 -0.022533838 1.2780229e-38 308 258
-0.01377068 0.71399999 -0.022533838 1.2227055e-38 309 258
-0.012518799 0.71399999 -0.022533838 1.2590447e-38 310 258
-0.011266919 0.71399999 -0.022533838 1.2590447e-38 311 258
-0.010001013 0.713 -0.022502279 1.2313142e-38 312 258
-0.0087508867 0.713 -0.022502279 1.2313142e-38 313 258
-0.0075007593 0.713 -0.022502279 1.258721e-38 314 258
-0.0062506334 0.713 -0.022502279 1.2955991e-38 315 258
-0.0050005065 0.713 -0.022502279 1.2866666e-38 316 258
-0.0037503797 0.713 -0.022502279 1.2866666e-38 317 258
-0.0025002533 0.713 -0.022502279 1.2866664e-38 318 258
-0.0012501266 0.713 -0.022502279 1.2590435e-38 319 258
0 0.713 -0.022502279 1.2315288e-38 320 258
0.00125188 0.71399999 -0.022533838 1.2315288e-38 321 258
0.0025037599 0.71399999 -0.022533838 1.2223095e-38 322 258
0.0037556398 0.71399999 -0.022533838 1.2223095e-38 323 258
0.0050215465 0.71600002 -0.022596961 1.2130543e-38 324 258
0.0062769335 0.71600002 -0.022596961 1.2222739e-38 325 258
0.00753232 0.71600002 -0.022596961 1.2222742e-38 326 258
0.0087877065 0.71600002 -0.022596961 1.2314939e-38 327 258
0.010043093 0.71600002 -0.022596961 1.2315307e-38 328 258
0.01131426 0.71700001 -0.02262852 1.2499699e-38 329 258
0.0125714 0.71700001 -0.02262852 1.2134159e-38 330 258
0.013828539 0.71700001 -0.02262852 1.2318551e-38 331 258
0.0151488 0.72000003 -0.022723202 1.149096e-38 332 258
0.0164112 0.72000003 -0.022723202 1.1029982e-38 333 258
0.017722692 0.722 -0.022786319 1.2156131e-38 334 258
0.0189886 0.722 -0.022786319 1.6120543e-38 335 258
-0.042469237 0.73400003 -0.024451986 1.7969847e-38 287 259
-0.041126184 0.73299998 -0.024418673 1.6123047e-38 288 259
-0.039840993 0.73299998 -0.024418673 9.9455813e-39 289 259
-0.038450599 0.73100001 -0.024352046 1.2039076e-38 290 259
-0.037168913 0.73100001 -0.024352046 1.1946881e-38 291 259
-0.035838135 0.73000002 -0.024318734 1.2773762e-38 292 259
-0.034463517 0.72799999 -0.024252106 1.2589731e-38 293 259
-0.033141505 0.727 -0.024218792 1.2497548e-38 294 259
-0.031779166 0.72500002 -0.024152167 1.2497548e-38 295 259
-0.030423839 0.72299999 -0.024085538 1.2314233e-38 296 259
-0.029115854 0.722 -0.024052227 1.2498983e-38 297 259
-0.027849946 0.722 -0.024052227 1.2316389e-38 298 259
-0.026510401 0.72000003 -0.0239856 1.2684813e-38 299 259
-0.025248 0.72000003 -0.0239856 1.2411103e-38 300 259
-0.023952285 0.71899998 -0.023952285 1.2872081e-38 301 259
-0.02262852 0.71700001 -0.02388566 1.2874595e-38 302 259
-0.021371379 0.71700001 -0.02388566 1.3151183e-38 303 259
-0.020114239 0.71700001 -0.02388566 1.3153324e-38 304 259
-0.0188308 0.71600002 -0.023852346 1.3245879e-38 305 259
-0.017575413 0.71600002 -0.023852346 1.3430974e-38 306 259
-0.016320027 0.71600002 -0.023852346 1.3154028e-38 307 259
-0.015022559 0.71399999 -0.02378572 1.3336274e-38 308 259
-0.01377068 0.71399999 -0.02378572 1.2875296e-38 309 259
-0.012518799 0.71399999 -0.02378572 1.2962828e-38 310 259
-0.011266919 0.71399999 -0.02378572 1.2409654e-38 311 259
-0.010001013 0.713 -0.023752406 1.2865592e-38 312 259
-0.0087508867 0.713 -0.023752406 1.2312418e-38 313 259
-0.0075007593 0.713 -0.023752406 1.2404619e-38 314 259
-0.0062506334 0.713 -0.023752406 1.258865e-38 315 259
-0.0050005065 0.713 -0.023752406 1.2498254e-38 316 259
-0.0037503797 0.713 -0.023752406 1.259045e-38 317 259
-0.0025002533 0.713 -0.023752406 1.2590803e-38 318 259
-0.0012501266 0.713 -0.023752406 1.2498607e-38 319 259
0 0.713 -0.023752406 1.2222739e-38 320 259
0.0012501266 0.713 -0.023752406 1.2222739e-38 321 259
0.0025002533 0.713 -0.023752406 1.2040147e-38 322 259
0.0037503797 0.713 -0.023752406 1.2040147e-38 323 259
0.0050075199 0.71399999 -0.02378572 1.2222742e-38 324 259
0.0062593995 0.71399999 -0.02378572 1.2130546e-38 325 259
0.0075112795 0.71399999 -0.02378572 1.213019e-38 326 259
0.0087631596 0.71399999 -0.02378572 1.2222386e-38 327 259
0.010043093 0.71600002 -0.023852346 1.2039799e-38 328 259
0.01131426 0.71700001 -0.02388566 1.2224191e-38 329 259
0.0125714 0.71700001 -0.02388566 1.213344e-38 330 259
0.013828539 0.71700001 -0.02388566 1.2317471e-38 331 259
0.0151488 0.72000003 -0.0239856 1.1765746e-38 332 259
0.0164112 0.72000003 -0.0239856 1.1120377e-38 333 259
0.017722692 0.722 -0.024052227 1.1134416e-38 334 259
0.0189886 0.722 -0.024052227 1.5467971e-38 335 259
-0.042469237 0.73400003 -0.025738932 1.7693983e-38 287 260
-0.041126184 0.73299998 -0.025703866 1.5937584e-38 288 260
-0.039840993 0.73299998 -0.025703866 1.0037064e-38 289 260
-0.038398001 0.73000002 -0.025598666 1.2499701e-38 290 260
-0.037118066 0.73000002 -0.025598666 1.1946528e-38 291 260
-0.035739943 0.72799999 -0.025528532 1.2956708e-38 292 260
-0.034463517 0.72799999 -0.025528532 1.2588284e-38 293 260
-0.033050332 0.72500002 -0.025423333 1.2589003e-38 294 260
-0.031691495 0.72299999 -0.025353199 1.2589003e-38 295 260
-0.030381758 0.722 -0.025318133 1.2405335e-38 296 260
-0.029115854 0.722 -0.025318133 1.2497531e-38 297 260
-0.027772799 0.72000003 -0.025248 1.2497898e-38 298 260
-0.026510401 0.72000003 -0.025248 1.2590452e-38 299 260
-0.025212931 0.71899998 -0.025212931 1.2685529e-38 300 260
-0.023952285 0.71899998 -0.025212931 1.2962475e-38 301 260
-0.02262852 0.71700001 -0.0251428 1.3059712e-38 302 260
-0.021371379 0.71700001 -0.0251428 1.3705082e-38 303 260
-0.020114239 0.71700001 -0.0251428 1.3432453e-38 304 260
-0.0188308 0.71600002 -0.025107734 1.3709042e-38 305 260
-0.017575413 0.71600002 -0.025107734 1.3435703e-38 306 260
-0.016320027 0.71600002 -0.025107734 1.4080714e-38 307 260
-0.015022559 0.71399999 -0.025037598 1.398924e-38 308 260
-0.01377068 0.71399999 -0.025037598 1.3159839e-38 309 260
-0.012518799 0.71399999 -0.025037598 1.3796927e-38 310 260
-0.011266919 0.71399999 -0.025037598 1.287461e-38 311 260
-0.010001013 0.713 -0.025002534 1.286956e-38 312 260
-0.0087508867 0.713 -0.025002534 1.2131995e-38 313 260
-0.0075007593 0.713 -0.025002534 1.2404972e-38 314 260
-0.0062506334 0.713 -0.025002534 1.2589003e-38 315 260
-0.0050005065 0.713 -0.025002534 1.2404969e-38 316 260
-0.0037503797 0.713 -0.025002534 1.2681196e-38 317 260
-0.0025002533 0.713 -0.025002534 1.2497887e-38 318 260
-0.0012501266 0.713 -0.025002534 1.2405332e-38 319 260
0 0.713 -0.025002534 1.2222023e-38 320 260
0.0012501266 0.713 -0.025002534 1.2222023e-38 321 260
0.0025002533 0.713 -0.025002534 1.2039424e-38 322 260
0.0037503797 0.713 -0.025002534 1.2223814e-38 323 260
0.0050075199 0.71399999 -0.025037598 1.2130896e-38 324 260
0.0062593995 0.71399999 -0.025037598 1.2223092e-38 325 260
0.0075112795 0.71399999 -0.025037598 1.2039424e-38 326 260
0.0087631596 0.71399999 -0.025037598 1.1947228e-38 327 260
0.01001504 0.71399999 -0.025037598 1.2223106e-38 328 260
0.01129848 0.71600002 -0.025107734 1.2223106e-38 329 260
0.0125714 0.71700001 -0.0251428 1.2224191e-38 330 260
0.013828539 0.71700001 -0.0251428 1.2316386e-38 331 260
0.015085679 0.71700001 -0.0251428 1.1857942e-38 332 260
0.0164112 0.72000003 -0.025248 1.167355e-38 333 260
0.017722692 0.722 -0.025318133 1.0389301e-38 334 260
0.0189886 0.722 -0.025318133 1.4906528e-38 335 260
-0.043756187 0.73400003 -0.02702588 1.7416317e-38 286 261
-0.042469237 0.73400003 -0.02702588 1.7601067e-38 287 261
-0.041126184 0.73299998 -0.026989058 1.5936148e-38 288 261
-0.039840993 0.73299998 -0.026989058 1.0312574e-38 289 261
-0.038398001 0.73000002 -0.026878599 1.2501148e-38 290 261
-0.037118066 0.73000002 -0.026878599 1.2039809e-38 291 261
-0.035739943 0.72799999 -0.026804959 1.2773392e-38 292 261
-0.03441618 0.727 -0.026768139 1.2681196e-38 293 261
-0.033050332 0.72500002 -0.026694499 1.2404969e-38 294 261
-0.031691495 0.72299999 -0.026620859 1.2404969e-38 295 261
-0.030381758 0.722 -0.026584039 1.2312423e-38 296 261
-0.029115854 0.722 -0.026584039 1.2404619e-38 297 261
-0.027772799 0.72000003 -0.026510401 1.2129124e-38 298 261
-0.026510401 0.72000003 -0.026510401 1.2497548e-38 299 261
-0.025212931 0.71899998 -0.02647358 1.213309e-38 300 261
-0.023952285 0.71899998 -0.02647358 1.2778459e-38 301 261
-0.02262852 0.71700001 -0.02639994 1.2691668e-38 302 261
-0.021371379 0.71700001 -0.02639994 1.3613624e-38 303 261
-0.020114239 0.71700001 -0.02639994 1.3526101e-38 304 261
-0.0188308 0.71600002 -0.026363119 1.3894524e-38 305 261
-0.017575413 0.71600002 -0.026363119 1.3806631e-38 306 261
-0.016274439 0.71399999 -0.026289478 1.3898828e-38 307 261
-0.015022559 0.71399999 -0.026289478 1.42669e-38 308 261
-0.013751393 0.713 -0.026252659 1.3990673e-38 309 261
-0.012501267 0.713 -0.026252659 1.3894878e-38 310 261
-0.011251139 0.713 -0.026252659 1.278853e-38 311 261
-0.010001013 0.713 -0.026252659 1.3149384e-38 312 261
-0.0087508867 0.713 -0.026252659 1.2135232e-38 313 261
-0.0075007593 0.713 -0.026252659 1.2589731e-38 314 261
-0.0062330998 0.71100003 -0.026179021 1.2313142e-38 315 261
-0.0049864799 0.71100003 -0.026179021 1.2313142e-38 316 261
-0.0037398601 0.71100003 -0.026179021 1.2313142e-38 317 261
-0.0024932399 0.71100003 -0.026179021 1.2220591e-38 318 261
-0.00124662 0.71100003 -0.026179021 1.2312786e-38 319 261
0 0.71100003 -0.026179021 1.2220588e-38 320 261
0.00124662 0.71100003 -0.026179021 1.2313142e-38 321 261
0.0025002533 0.713 -0.026252659 1.2130546e-38 322 261
0.0037503797 0.713 -0.026252659 1.2130546e-38 323 261
0.0050075199 0.71399999 -0.026289478 1.2130546e-38 324 261
0.0062593995 0.71399999 -0.026289478 1.2222742e-38 325 261
0.0075112795 0.71399999 -0.026289478 1.2039074e-38 326 261
0.0087631596 0.71399999 -0.026289478 1.2039074e-38 327 261
0.01001504 0.71399999 -0.026289478 1.19476e-38 328 261
0.01129848 0.71600002 -0.026363119 1.2039797e-38 329 261
0.0125714 0.71700001 -0.02639994 1.2315307e-38 330 261
0.013828539 0.71700001 -0.02639994 1.2315307e-38 331 261
0.015085679 0.71700001 -0.02639994 1.1856144e-38 332 261
0.016388407 0.71899998 -0.02647358 1.2040894e-38 333 261
0.017649053 0.71899998 -0.02647358 1.0659769e-38 334 261
0.018909698 0.71899998 -0.02647358 1.397917e-38 335 261
-0.043756187 0.73400003 -0.028312827 1.7324477e-38 286 262
-0.042469237 0.73400003 -0.028312827 1.7508868e-38 287 262
-0.041126184 0.73299998 -0.028274251 1.5935782e-38 288 262
-0.039840993 0.73299998 -0.028274251 1.0588435e-38 289 262
-0.038555797 0.73299998 -0.028274251 1.2502217e-38 290 262
-0.037168913 0.73100001 -0.028197108 1.1856847e-38 291 262
-0.035838135 0.73000002 -0.028158534 1.2774465e-38 292 262
-0.03441618 0.727 -0.028042812 1.2406043e-38 293 262
-0.033050332 0.72500002 -0.027965667 1.2405325e-38 294 262
-0.031647664 0.722 -0.027849946 1.2220578e-38 295 262
-0.030381758 0.722 -0.027849946 1.2220222e-38 296 262
-0.029115854 0.722 -0.027849946 1.2220222e-38 297 262
-0.027772799 0.72000003 -0.027772799 1.2128392e-38 298 262
-0.026510401 0.72000003 -0.027772799 1.2220588e-38 299 262
-0.025248 0.72000003 -0.027772799 1.2038723e-38 300 262
-0.023952285 0.71899998 -0.027734226 1.2591897e-38 301 262
-0.022691639 0.71899998 -0.027734226 1.2596952e-38 302 262
-0.021371379 0.71700001 -0.027657079 1.3334517e-38 303 262
-0.020086186 0.71600002 -0.027618507 1.3247368e-38 304 262
-0.0188308 0.71600002 -0.027618507 1.3892738e-38 305 262
-0.017575413 0.71600002 -0.027618507 1.3434997e-38 306 262
-0.016274439 0.71399999 -0.02754136 1.3434997e-38 307 262
-0.015001519 0.713 -0.027502786 1.352755e-38 308 262
-0.013751393 0.713 -0.027502786 1.3803776e-38 309 262
-0.012501267 0.713 -0.027502786 1.3711212e-38 310 262
-0.011251139 0.713 -0.027502786 1.2973646e-38 311 262
-0.0099729598 0.71100003 -0.027425639 1.3241952e-38 312 262
-0.0087263398 0.71100003 -0.027425639 1.2504386e-38 313 262
-0.0074797203 0.71100003 -0.027425639 1.2407503e-38 314 262
-0.0062330998 0.71100003 -0.027425639 1.2223112e-38 315 262
-0.0049864799 0.71100003 -0.027425639 1.2128748e-38 316 262
-0.0037398601 0.71100003 -0.027425639 1.2128748e-38 317 262
-0.0024932399 0.71100003 -0.027425639 1.2127673e-38 318 262
-0.00124662 0.71100003 -0.027425639 1.2219869e-38 319 262
0 0.71100003 -0.027425639 1.2128392e-38 320 262
0.00124662 0.71100003 -0.027425639 1.2220588e-38 321 262
0.0024932399 0.71100003 -0.027425639 1.2037276e-38 322 262
0.0037398601 0.71100003 -0.027425639 1.2037276e-38 323 262
0.0050005065 0.713 -0.027502786 1.2129471e-38 324 262
0.0062506334 0.713 -0.027502786 1.2129471e-38 325 262
0.0075112795 0.71399999 -0.02754136 1.2037995e-38 326 262
0.0087631596 0.71399999 -0.02754136 1.2037995e-38 327 262
0.01001504 0.71399999 -0.02754136 1.1946878e-38 328 262
0.01129848 0.71600002 -0.027618507 1.2039074e-38 329 262
0.0125714 0.71700001 -0.027657079 1.2222386e-38 330 262
0.013828539 0.71700001 -0.027657079 1.2222386e-38 331 262
0.015085679 0.71700001 -0.027657079 1.1763931e-38 332 262
0.016388407 0.71899998 -0.027734226 1.1856128e-38 333 262
0.017649053 0.71899998 -0.027734226 1.1118212e-38 334 262
0.018909698 0.71899998 -0.027734226 1.3791886e-38 335 262
-0.043756187 0.73400003 -0.029599773 1.7323758e-38 286 263
-0.042469237 0.73400003 -0.029599773 1.750815e-38 287 263
-0.041126184 0.73299998 -0.029559445 1.6211646e-38 288 263
-0.039840993 0.73299998 -0.029559445 1.0956495e-38 289 263
-0.038555797 0.73299998 -0.029559445 1.2870276e-38 290 263
-0.037168913 0.73100001 -0.029478792 1.2224907e-38 291 263
-0.035838135 0.73000002 -0.029438468 1.2683351e-38 292 263
-0.03422682 0.72299999 -0.029156178 1.2222373e-38 293 263
-0.032913569 0.722 -0.029115854 1.2405325e-38 294 263
-0.031647664 0.722 -0.029115854 1.2220578e-38 295 263
-0.030381758 0.722 -0.029115854 1.2128027e-38 296 263
-0.029115854 0.722 -0.029115854 1.2035831e-38 297 263
-0.027772799 0.72000003 -0.029035201 1.1944361e-38 298 263
-0.026510401 0.72000003 -0.029035201 1.1944361e-38 299 263
-0.025248 0.72000003 -0.029035201 1.1945093e-38 300 263
-0.0239856 0.72000003 -0.029035201 1.2222038e-38 301 263
-0.022691639 0.71899998 -0.028994869 1.2132736e-38 302 263
-0.021371379 0.71700001 -0.028914221 1.2962137e-38 303 263
-0.020086186 0.71600002 -0.028873893 1.2873904e-38 304 263
-0.0188308 0.71600002 -0.028873893 1.3519274e-38 305 263
-0.017575413 0.71600002 -0.028873893 1.3061902e-38 306 263
-0.016274439 0.71399999 -0.028793238 1.3338129e-38 307 263
-0.015001519 0.713 -0.028752912 1.3154814e-38 308 263
-0.013751393 0.713 -0.028752912 1.34314e-38 309 263
-0.012501267 0.713 -0.028752912 1.3338117e-38 310 263
-0.011251139 0.713 -0.028752912 1.2507997e-38 311 263
-0.0099729598 0.71100003 -0.028672259 1.2964287e-38 312 263
-0.0087263398 0.71100003 -0.028672259 1.2319276e-38 313 263
-0.0074797203 0.71100003 -0.028672259 1.2316386e-38 314 263
-0.0062330998 0.71100003 -0.028672259 1.1947244e-38 315 263
-0.0049864799 0.71100003 -0.028672259 1.2037632e-38 316 263
-0.0037398601 0.71100003 -0.028672259 1.1852882e-38 317 263
-0.0024932399 0.71100003 -0.028672259 1.2035476e-38 318 263
-0.00124662 0.71100003 -0.028672259 1.2035476e-38 319 263
0 0.71100003 -0.028672259 1.1944358e-38 320 263
0.00124662 0.71100003 -0.028672259 1.1944358e-38 321 263
0.0024932399 0.71100003 -0.028672259 1.1944361e-38 322 263
0.0037398601 0.71100003 -0.028672259 1.2128392e-38 323 263
0.0050005065 0.713 -0.028752912 1.1945802e-38 324 263
0.0062506334 0.713 -0.028752912 1.1945802e-38 325 263
0.0075112795 0.71399999 -0.028793238 1.1945799e-38 326 263
0.0087631596 0.71399999 -0.028793238 1.2037995e-38 327 263
0.01001504 0.71399999 -0.028793238 1.1946878e-38 328 263
0.01129848 0.71600002 -0.028873893 1.1854682e-38 329 263
0.012553867 0.71600002 -0.028873893 1.2037995e-38 330 263
0.013828539 0.71700001 -0.028914221 1.2037995e-38 331 263
0.015085679 0.71700001 -0.028914221 1.1854329e-38 332 263
0.016342819 0.71700001 -0.028914221 1.1854329e-38 333 263
0.017649053 0.71899998 -0.028994869 1.1025294e-38 334 263
0.018909698 0.71899998 -0.028994869 1.3422381e-38 335 263
-0.042469237 0.73400003 -0.030886721 1.7507794e-38 287 264
-0.041126184 0.73299998 -0.030844638 1.6121247e-38 288 264
-0.039840993 0.73299998 -0.030844638 1.1143041e-38 289 264
-0.038555797 0.73299998 -0.030844638 1.305609e-38 290 264
-0.037168913 0.73100001 -0.03076048 1.2595472e-38 291 264
-0.035838135 0.73000002 -0.030718399 1.3051761e-38 292 264
-0.03422682 0.72299999 -0.030423839 1.2498596e-38 293 264
-0.032913569 0.722 -0.030381758 1.2405325e-38 294 264
-0.031647664 0.722 -0.030381758 1.2128384e-38 295 264
-0.030381758 0.722 -0.030381758 1.2035831e-38 296 264
-0.029115854 0.722 -0.030381758 1.2035831e-38 297 264
-0.027772799 0.72000003 -0.0302976 1.1852161e-38 298 264
-0.026510401 0.72000003 -0.0302976 1.1852161e-38 299 264
-0.025248 0.72000003 -0.0302976 1.1760334e-38 300 264
-0.0239856 0.72000003 -0.0302976 1.2036923e-38 301 264
-0.02262852 0.71700001 -0.030171359 1.2038024e-38 302 264
-0.021371379 0.71700001 -0.030171359 1.2591196e-38 303 264
-0.020114239 0.71700001 -0.030171359 1.2410768e-38 304 264
-0.0188308 0.71600002 -0.03012928 1.2779192e-38 305 264
-0.017575413 0.71600002 -0.03012928 1.2873911e-38 306 264
-0.016274439 0.71399999 -0.030045118 1.3058302e-38 307 264
-0.015001519 0.713 -0.030003037 1.2875359e-38 308 264
-0.013751393 0.713 -0.030003037 1.2875359e-38 309 264
-0.012501267 0.713 -0.030003037 1.31487e-38 310 264
-0.011251139 0.713 -0.030003037 1.2503331e-38 311 264
-0.0099729598 0.71100003 -0.029918881 1.277738e-38 312 264
-0.0087263398 0.71100003 -0.029918881 1.2408597e-38 313 264
-0.0074797203 0.71100003 -0.029918881 1.2224191e-38 314 264
-0.0062330998 0.71100003 -0.029918881 1.1855048e-38 315 264
-0.0049864799 0.71100003 -0.029918881 1.2037632e-38 316 264
-0.0037398601 0.71100003 -0.029918881 1.1852882e-38 317 264
-0.0024932399 0.71100003 -0.029918881 1.1852161e-38 318 264
-0.0012448666 0.70999998 -0.029876797 1.1852161e-38 319 264
0 0.70999998 -0.029876797 1.1852161e-38 320 264
0.00124662 0.71100003 -0.029918881 1.1852161e-38 321 264
0.0024932399 0.71100003 -0.029918881 1.1852529e-38 322 264
0.0037398601 0.71100003 -0.029918881 1.1945083e-38 323 264
0.0049864799 0.71100003 -0.029918881 1.1669938e-38 324 264
0.0062506334 0.713 -0.030003037 1.1669938e-38 325 264
0.0075007593 0.713 -0.030003037 1.1669935e-38 326 264
0.0087508867 0.713 -0.030003037 1.1762131e-38 327 264
0.01001504 0.71399999 -0.030045118 1.1854682e-38 328 264
0.01129848 0.71600002 -0.03012928 1.1854682e-38 329 264
0.012553867 0.71600002 -0.03012928 1.1945796e-38 330 264
0.013828539 0.71700001 -0.030171359 1.1761765e-38 331 264
0.015085679 0.71700001 -0.030171359 1.1669935e-38 332 264
0.016342819 0.71700001 -0.030171359 1.1762131e-38 333 264
0.017649053 0.71899998 -0.030255521 1.1025645e-38 334 264
0.018909698 0.71899998 -0.030255521 1.2961753e-38 335 264
-0.042469237 0.73400003 -0.032173667 1.7507794e-38 287 265
-0.041182294 0.73400003 -0.032173667 1.6398192e-38 288 265
-0.039895348 0.73400003 -0.032173667 1.1788411e-38 289 265
-0.038608398 0.73400003 -0.032173667 1.342632e-38 290 265
-0.037321456 0.73400003 -0.032173667 1.2504724e-38 291 265
-0.035445385 0.722 -0.031647664 1.2961377e-38 292 265
-0.034179479 0.722 -0.031647664 1.2316008e-38 293 265
-0.032913569 0.722 -0.031647664 1.2406407e-38 294 265
-0.03156 0.72000003 -0.03156 1.2037626e-38 295 265
-0.0302976 0.72000003 -0.03156 1.2128748e-38 296 265
-0.029035201 0.72000003 -0.03156 1.1852161e-38 297 265
-0.027849946 0.722 -0.031647664 1.1943281e-38 298 265
-0.026510401 0.72000003 -0.03156 1.1943281e-38 299 265
-0.025248 0.72000003 -0.03156 1.1759613e-38 300 265
-0.0239856 0.72000003 -0.03156 1.1759613e-38 301 265
-0.02262852 0.71700001 -0.031428497 1.1943655e-38 302 265
-0.021371379 0.71700001 -0.031428497 1.2404632e-38 303 265
-0.020114239 0.71700001 -0.031428497 1.24068e-38 304 265
-0.0188308 0.71600002 -0.031384666 1.2867778e-38 305 265
-0.017575413 0.71600002 -0.031384666 1.2869225e-38 306 265
-0.016274439 0.71399999 -0.031296998 1.3145814e-38 307 265
-0.015022559 0.71399999 -0.031296998 1.2871387e-38 308 265
-0.013751393 0.713 -0.031253166 1.2595161e-38 309 265
-0.012501267 0.713 -0.031253166 1.2869225e-38 310 265
-0.011251139 0.713 -0.031253166 1.2408248e-38 311 265
-0.010001013 0.713 -0.031253166 1.2499351e-38 312 265
-0.0087263398 0.71100003 -0.031165501 1.2499351e-38 313 265
-0.0074797203 0.71100003 -0.031165501 1.204016e-38 314 265
-0.0062330998 0.71100003 -0.031165501 1.1671736e-38 315 265
-0.0049864799 0.71100003 -0.031165501 1.2037276e-38 316 265
-0.0037398601 0.71100003 -0.031165501 1.1760687e-38 317 265
-0.0024897333 0.70999998 -0.031121666 1.1667772e-38 318 265
-0.0012448666 0.70999998 -0.031121666 1.1667772e-38 319 265
0 0.70999998 -0.031121666 1.1759607e-38 320 265
0.0012448666 0.70999998 -0.031121666 1.1943637e-38 321 265
0.0024932399 0.71100003 -0.031165501 1.1576654e-38 322 265
0.0037398601 0.71100003 -0.031165501 1.1853238e-38 323 265
0.0049864799 0.71100003 -0.031165501 1.1669216e-38 324 265
0.0062506334 0.713 -0.031253166 1.1669216e-38 325 265
0.0075007593 0.713 -0.031253166 1.1669216e-38 326 265
0.0087508867 0.713 -0.031253166 1.1761412e-38 327 265
0.01001504 0.71399999 -0.031296998 1.1762484e-38 328 265
0.01129848 0.71600002 -0.031384666 1.1670288e-38 329 265
0.012553867 0.71600002 -0.031384666 1.1760683e-38 330 265
0.013809253 0.71600002 -0.031384666 1.1760683e-38 331 265
0.015085679 0.71700001 -0.031428497 1.1301509e-38 332 265
0.016342819 0.71700001 -0.031428497 1.1670291e-38 333 265
0.017599959 0.71700001 -0.031428497 1.1118915e-38 334 265
0.018909698 0.71899998 -0.031516165 1.2685882e-38 335 265
-0.041406717 0.73799998 -0.033642959 1.6676218e-38 288 266
-0.040112756 0.73799998 -0.033642959 1.2527415e-38 289 266
-0.038818799 0.73799998 -0.033642959 1.3335573e-38 290 266
-0.035445385 0.722 -0.032913569 1.2961733e-38 292 266
-0.034179479 0.722 -0.032913569 1.2592951e-38 293 266
-0.032913569 0.722 -0.032913569 1.2499313e-38 294 266
-0.03156 0.72000003 -0.0328224 1.2130536e-38 295 266
-0.0302976 0.72000003 -0.0328224 1.2128025e-38 296 266
-0.029035201 0.72000003 -0.0328224 1.2035831e-38 297 266
-0.027849946 0.722 -0.032913569 1.1759966e-38 298 266
-0.026510401 0.72000003 -0.0328224 1.1759966e-38 299 266
-0.025248 0.72000003 -0.0328224 1.1759969e-38 300 266
-0.0239856 0.72000003 -0.0328224 1.1759969e-38 301 266
-0.02262852 0.71700001 -0.032685637 1.1943655e-38 302 266
-0.021371379 0.71700001 -0.032685637 1.222024e-38 303 266
-0.020114239 0.71700001 -0.032685637 1.1945827e-38 304 266
-0.0188308 0.71600002 -0.032640055 1.2314251e-38 305 266
-0.017575413 0.71600002 -0.032640055 1.2040556e-38 306 266
-0.016274439 0.71399999 -0.032548878 1.2224949e-38 307 266
-0.015001519 0.713 -0.032503292 1.2408261e-38 308 266
-0.013751393 0.713 -0.032503292 1.2316065e-38 309 266
-0.012501267 0.713 -0.032503292 1.2223853e-38 310 266
-0.011251139 0.713 -0.032503292 1.2131657e-38 311 266
-0.010001013 0.713 -0.032503292 1.2131639e-38 312 266
-0.0087263398 0.71100003 -0.032412119 1.2131639e-38 313 266
-0.0074797203 0.71100003 -0.032412119 1.2039074e-38 314 266
-0.0062330998 0.71100003 -0.032412119 1.1946878e-38 315 266
-0.0049864799 0.71100003 -0.032412119 1.1945796e-38 316 266
-0.0037398601 0.71100003 -0.032412119 1.1577372e-38 317 266
-0.0024897333 0.70999998 -0.032366529 1.1760324e-38 318 266
-0.0012448666 0.70999998 -0.032366529 1.1667772e-38 319 266
0 0.70999998 -0.032366529 1.1667772e-38 320 266
0.0012448666 0.70999998 -0.032366529 1.1667772e-38 321 266
0.0024932399 0.71100003 -0.032412119 1.1484459e-38 322 266
0.0037398601 0.71100003 -0.032412119 1.1576654e-38 323 266
0.0049864799 0.71100003 -0.032412119 1.1393707e-38 324 266
0.0062506334 0.713 -0.032503292 1.1393707e-38 325 266
0.0075007593 0.713 -0.032503292 1.1393704e-38 326 266
0.0087508867 0.713 -0.032503292 1.1577737e-38 327 266
0.01001504 0.71399999 -0.032548878 1.1211468e-38 328 266
0.01129848 0.71600002 -0.032640055 1.1118912e-38 329 266
0.012553867 0.71600002 -0.032640055 1.1302227e-38 330 266
0.013809253 0.71600002 -0.032640055 1.1210032e-38 331 266
0.015085679 0.71700001 -0.032685637 1.1118562e-38 332 266
0.016342819 0.71700001 -0.032685637 1.1487345e-38 333 266
0.017599959 0.71700001 -0.032685637 1.1304746e-38 334 266
0.018909698 0.71899998 -0.032776814 1.2227062e-38 335 266
0.020198401 0.72000003 -0.0328224 1.3438556e-38 336 266
-0.0379772 0.722 -0.034179479 1.3246975e-38 290 267
-0.034179479 0.722 -0.034179479 1.2134496e-38 293 267
-0.032913569 0.722 -0.034179479 1.2408206e-38 294 267
-0.031647664 0.722 -0.034179479 1.1947228e-38 295 267
-0.0302976 0.72000003 -0.034084801 1.2129824e-38 296 267
-0.029035201 0.72000003 -0.034084801 1.1945433e-38 297 267
-0.027849946 0.722 -0.034179479 1.1853238e-38 298 267
-0.026510401 0.72000003 -0.034084801 1.1760683e-38 299 267
-0.025248 0.72000003 -0.034084801 1.1759966e-38 300 267
-0.0239856 0.72000003 -0.034084801 1.1759966e-38 301 267
-0.02262852 0.71700001 -0.033942781 1.1851808e-38 302 267
-0.021371379 0.71700001 -0.033942781 1.1944364e-38 303 267
-0.020114239 0.71700001 -0.033942781 1.2128039e-38 304 267
-0.0188308 0.71600002 -0.03389544 1.2312789e-38 305 267
-0.017575413 0.71600002 -0.03389544 1.2221319e-38 306 267
-0.016274439 0.71399999 -0.033800758 1.2497548e-38 307 267
-0.015001519 0.713 -0.033753417 1.2222036e-38 308 267
-0.013751393 0.713 -0.033753417 1.2314233e-38 309 267
-0.012501267 0.713 -0.033753417 1.2315305e-38 310 267
-0.011251139 0.713 -0.033753417 1.2223109e-38 311 267
-0.010001013 0.713 -0.033753417 1.2131989e-38 312 267
-0.0087263398 0.71100003 -0.033658739 1.2039794e-38 313 267
-0.0074797203 0.71100003 -0.033658739 1.2039794e-38 314 267
-0.0062330998 0.71100003 -0.033658739 1.1855401e-38 315 267
-0.0049864799 0.71100003 -0.033658739 1.1945083e-38 316 267
-0.0037398601 0.71100003 -0.033658739 1.1760332e-38 317 267
-0.0024932399 0.71100003 -0.033658739 1.1667772e-38 318 267
-0.00124662 0.71100003 -0.033658739 1.1575577e-38 319 267
0 0.71100003 -0.033658739 1.157486e-38 320 267
0.00124662 0.71100003 -0.033658739 1.1667054e-38 321 267
0.0024932399 0.71100003 -0.033658739 1.1392265e-38 322 267
0.0037398601 0.71100003 -0.033658739 1.1484459e-38 323 267
0.0049864799 0.71100003 -0.033658739 1.1392983e-38 324 267
0.0062506334 0.713 -0.033753417 1.1392983e-38 325 267
0.0075007593 0.713 -0.033753417 1.1300788e-38 326 267
0.0087631596 0.71399999 -0.033800758 1.1300788e-38 327 267
0.01001504 0.71399999 -0.033800758 1.120967e-38 328 267
0.01129848 0.71600002 -0.03389544 1.120967e-38 329 267
0.012553867 0.71600002 -0.03389544 1.1026358e-38 330 267
0.013828539 0.71700001 -0.033942781 1.1210388e-38 331 267
0.015085679 0.71700001 -0.033942781 1.1118912e-38 332 267
0.016342819 0.71700001 -0.033942781 1.1579891e-38 333 267
0.017649053 0.71899998 -0.03403746 1.1305096e-38 334 267
0.018909698 0.71899998 -0.03403746 1.2227411e-38 335 267
0.020198401 0.72000003 -0.034084801 1.3254158e-38 336 267
0.021460801 0.72000003 -0.034084801 1.6665397e-38 337 267
-0.035445385 0.722 -0.035445385 1.3053929e-38 292 268
-0.034179479 0.722 -0.035445385 1.2685146e-38 293 268
-0.032913569 0.722 -0.035445385 1.2683349e-38 294 268
-0.031647664 0.722 -0.035445385 1.2222372e-38 295 268
-0.0302976 0.72000003 -0.035347197 1.231349e-38 296 268
-0.029035201 0.72000003 -0.035347197 1.231349e-38 297 268
-0.027849946 0.722 -0.035445385 1.2037983e-38 298 268
-0.026510401 0.72000003 -0.035347197 1.1945789e-38 299 268
-0.025248 0.72000003 -0.035347197 1.1853238e-38 300 268
-0.0239856 0.72000003 -0.035347197 1.1760683e-38 301 268
-0.022691639 0.71899998 -0.035298105 1.1944361e-38 302 268
-0.021430992 0.71899998 -0.035298105 1.1944361e-38 303 268
-0.020114239 0.71700001 -0.035199918 1.1944008e-38 304 268
-0.0188308 0.71600002 -0.035150826 1.2128039e-38 305 268
-0.017575413 0.71600002 -0.035150826 1.2037647e-38 306 268
-0.016274439 0.71399999 -0.035052639 1.2037647e-38 307 268
-0.015022559 0.71399999 -0.035052639 1.1853976e-38 308 268
-0.013751393 0.713 -0.035003547 1.1853976e-38 309 268
-0.012501267 0.713 -0.035003547 1.1763931e-38 310 268
-0.011251139 0.713 -0.035003547 1.1671736e-38 311 268
-0.010001013 0.713 -0.035003547 1.1764287e-38 312 268
-0.0087263398 0.71100003 -0.034905359 1.1764287e-38 313 268
-0.0074797203 0.71100003 -0.034905359 1.1855401e-38 314 268
-0.0062330998 0.71100003 -0.034905359 1.1579174e-38 315 268
-0.0049864799 0.71100003 -0.034905359 1.1852882e-38 316 268
-0.0037398601 0.71100003 -0.034905359 1.1576654e-38 317 268
-0.0024932399 0.71100003 -0.034905359 1.1575577e-38 318 268
-0.00124662 0.71100003 -0.034905359 1.1575577e-38 319 268
0 0.71100003 -0.034905359 1.1392265e-38 320 268
0.00124662 0.71100003 -0.034905359 1.1484818e-38 321 268
0.0024932399 0.71100003 -0.034905359 1.1392983e-38 322 268
0.0037398601 0.71100003 -0.034905359 1.1392983e-38 323 268
0.0050005065 0.713 -0.035003547 1.1391906e-38 324 268
0.0062506334 0.713 -0.035003547 1.1391906e-38 325 268
0.0075007593 0.713 -0.035003547 1.1117117e-38 326 268
0.0087631596 0.71399999 -0.035052639 1.1117117e-38 327 268
0.010043093 0.71600002 -0.035150826 1.0933805e-38 328 268
0.01129848 0.71600002 -0.035150826 1.0933805e-38 329 268
0.012553867 0.71600002 -0.035150826 1.0843404e-38 330 268
0.013828539 0.71700001 -0.035199918 1.1027436e-38 331 268
0.015085679 0.71700001 -0.035199918 1.1028519e-38 332 268
0.016342819 0.71700001 -0.035199918 1.1396941e-38 333 268
0.017649053 0.71899998 -0.035298105 1.1489124e-38 334 268
0.018909698 0.71899998 -0.035298105 1.2595472e-38 335 268
0.020198401 0.72000003 -0.035347197 1.371477e-38 336 268
0.021460801 0.72000003 -0.035347197 1.6941617e-38 337 268
-0.032959159 0.72299999 -0.036762137 1.268372e-38 294 269
-0.031647664 0.722 -0.03671129 1.2314939e-38 295 269
-0.030381758 0.722 -0.03671129 1.2406051e-38 296 269
-0.029115854 0.722 -0.03671129 1.2406051e-38 297 269
-0.027849946 0.722 -0.03671129 1.2130899e-38 298 269
-0.026510401 0.72000003 -0.036609601 1.2038345e-38 299 269
-0.025248 0.72000003 -0.036609601 1.2037626e-38 300 269
-0.0239856 0.72000003 -0.036609601 1.194543e-38 301 269
-0.022691639 0.71899998 -0.036558751 1.2128027e-38 302 269
-0.021430992 0.71899998 -0.036558751 1.2128027e-38 303 269
-0.020114239 0.71700001 -0.036457058 1.1944714e-38 304 269
-0.0188308 0.71600002 -0.036406212 1.2128745e-38 305 269
-0.017575413 0.71600002 -0.036406212 1.1945077e-38 306 269
-0.016320027 0.71600002 -0.036406212 1.1945077e-38 307 269
-0.015022559 0.71399999 -0.036304519 1.1945077e-38 308 269
-0.01377068 0.71399999 -0.036304519 1.1945077e-38 309 269
-0.012501267 0.713 -0.036253672 1.1762487e-38 310 269
-0.011251139 0.713 -0.036253672 1.1854682e-38 311 269
-0.010001013 0.713 -0.036253672 1.1854682e-38 312 269
-0.0087263398 0.71100003 -0.036151983 1.1854682e-38 313 269
-0.0074797203 0.71100003 -0.036151983 1.167137e-38 314 269
-0.0062330998 0.71100003 -0.036151983 1.148662e-38 315 269
-0.0049864799 0.71100003 -0.036151983 1.1669572e-38 316 269
-0.0037398601 0.71100003 -0.036151983 1.1484821e-38 317 269
-0.0024932399 0.71100003 -0.036151983 1.1575936e-38 318 269
-0.00124662 0.71100003 -0.036151983 1.1575936e-38 319 269
0 0.71100003 -0.036151983 1.1484818e-38 320 269
0.00124662 0.71100003 -0.036151983 1.1484818e-38 321 269
0.0024932399 0.71100003 -0.036151983 1.1392265e-38 322 269
0.0037398601 0.71100003 -0.036151983 1.1392265e-38 323 269
0.0050005065 0.713 -0.036253672 1.1299712e-38 324 269
0.0062506334 0.713 -0.036253672 1.1299712e-38 325 269
0.0075112795 0.71399999 -0.036304519 1.1024923e-38 326 269
0.0087631596 0.71399999 -0.036304519 1.1024923e-38 327 269
0.010043093 0.71600002 -0.036406212 1.0750134e-38 328 269
0.01129848 0.71600002 -0.036406212 1.0842328e-38 329 269
0.0125714 0.71700001 -0.036457058 1.0843404e-38 330 269
0.013828539 0.71700001 -0.036457058 1.1027436e-38 331 269
0.015085679 0.71700001 -0.036457058 1.1029238e-38 332 269
0.016388407 0.71899998 -0.036558751 1.1490216e-38 333 269
0.017649053 0.71899998 -0.036558751 1.1489124e-38 334 269
0.018935999 0.72000003 -0.036609601 1.2779863e-38 335 269
0.020198401 0.72000003 -0.036609601 1.4084273e-38 336 269
0.021460801 0.72000003 -0.036609601 1.6942336e-38 337 269
0.022723202 0.72000003 -0.036609601 1.6214865e-38 338 269
