# .PCD v.7 - Point Cloud Data file format
FIELDS x y z rgb imX imY
SIZE 4 4 4 4 4 4
TYPE F F F F F F
COUNT 1 1 1 1 1 1
WIDTH 841
HEIGHT 1
VIEWPOINT 0 0 0 1 0 0 0
POINTS 841
DATA ascii
0 0.722 -0.0075954394 1.2880378e-38 320 246
0.0012659066 0.722 -0.0075954394 1.3340998e-38 321 246
0.0025318132 0.722 -0.0075954394 1.2701396e-38 322 246
0.0037977197 0.722 -0.0075954394 1.3899938e-38 323 246
0.0050636264 0.722 -0.0075954394 1.4094053e-38 324 246
-0.026804959 0.72799999 -0.0089349858 1.2689129e-38 299 247
-0.025528532 0.72799999 -0.0089349858 1.3512058e-38 300 247
-0.024218792 0.727 -0.0089227129 1.305072e-38 301 247
-0.022880999 0.72500002 -0.0088981669 1.3324796e-38 302 247
-0.021609833 0.72500002 -0.0088981669 1.3140046e-38 303 247
-0.020394772 0.727 -0.0089227129 1.2957089e-38 304 247
-0.0190675 0.72500002 -0.0088981669 1.2864535e-38 305 247
-0.017796334 0.72500002 -0.0088981669 1.2956008e-38 306 247
-0.016525166 0.72500002 -0.0088981669 1.2956008e-38 307 247
-0.015254001 0.72500002 -0.0088981669 1.2863086e-38 308 247
-0.013982833 0.72500002 -0.0088981669 1.295564e-38 309 247
-0.012711667 0.72500002 -0.0088981669 1.2773043e-38 310 247
-0.01140894 0.72299999 -0.0088736191 1.323402e-38 311 247
-0.01014128 0.72299999 -0.0088736191 1.305286e-38 312 247
-0.0088736191 0.72299999 -0.0088736191 1.3145055e-38 313 247
-0.0076059597 0.72299999 -0.0088736191 1.3144349e-38 314 247
-0.0063382997 0.72299999 -0.0088736191 1.3052154e-38 315 247
-0.0050706398 0.72299999 -0.0088736191 1.2961052e-38 316 247
-0.0038029798 0.72299999 -0.0088736191 1.3145083e-38 317 247
-0.0025318132 0.722 -0.0088613462 1.2964287e-38 318 247
-0.0012659066 0.722 -0.0088613462 1.3425265e-38 319 247
0 0.722 -0.0088613462 1.3151918e-38 320 247
0.0012659066 0.722 -0.0088613462 1.3336668e-38 321 247
0.0025318132 0.722 -0.0088613462 1.2694909e-38 322 247
0.0037977197 0.722 -0.0088613462 1.306369e-38 323 247
0.0050636264 0.722 -0.0088613462 1.2610648e-38 324 247
-0.028158534 0.73000002 -0.010239467 1.3606043e-38 298 248
-0.026804959 0.72799999 -0.010211413 1.323762e-38 299 248
-0.025493465 0.727 -0.010197386 1.3510964e-38 300 248
-0.024152167 0.72500002 -0.010169334 1.3049986e-38 301 248
-0.022880999 0.72500002 -0.010169334 1.3323696e-38 302 248
-0.021609833 0.72500002 -0.010169334 1.32315e-38 303 248
-0.020338668 0.72500002 -0.010169334 1.2955988e-38 304 248
-0.0190675 0.72500002 -0.010169334 1.2955988e-38 305 248
-0.017747238 0.72299999 -0.01014128 1.2863074e-38 306 248
-0.01647958 0.72299999 -0.01014128 1.2863074e-38 307 248
-0.015211919 0.72299999 -0.01014128 1.2863074e-38 308 248
-0.01394426 0.72299999 -0.01014128 1.2955269e-38 309 248
-0.012676599 0.72299999 -0.01014128 1.304854e-38 310 248
-0.01140894 0.72299999 -0.01014128 1.3232932e-38 311 248
-0.010127253 0.722 -0.010127253 1.323652e-38 312 248
-0.0088613462 0.722 -0.010127253 1.3329074e-38 313 248
-0.0075954394 0.722 -0.010127253 1.3328718e-38 314 248
-0.0063295332 0.722 -0.010127253 1.3236522e-38 315 248
-0.0050636264 0.722 -0.010127253 1.3143267e-38 316 248
-0.0037977197 0.722 -0.010127253 1.3143267e-38 317 248
-0.0025318132 0.722 -0.010127253 1.2776658e-38 318 248
-0.0012659066 0.722 -0.010127253 1.3145439e-38 319 248
0 0.722 -0.010127253 1.2686273e-38 320 248
0.0012659066 0.722 -0.010127253 1.3055416e-38 321 248
0.0025318132 0.722 -0.010127253 1.2782792e-38 322 248
0.0037977197 0.722 -0.010127253 1.3151573e-38 323 248
0.0050636264 0.722 -0.010127253 1.2603085e-38 324 248
0.0063382997 0.72299999 -0.01014128 1.2879672e-38 325 248
-0.029357811 0.72799999 -0.01148784 1.3242659e-38 297 249
-0.028081384 0.72799999 -0.01148784 1.3697876e-38 298 249
-0.026768139 0.727 -0.01147206 1.3328733e-38 299 249
-0.025423333 0.72500002 -0.0114405 1.3602076e-38 300 249
-0.024085538 0.72299999 -0.01140894 1.3233654e-38 301 249
-0.02281788 0.72299999 -0.01140894 1.304854e-38 302 249
-0.021550218 0.72299999 -0.01140894 1.304854e-38 303 249
-0.020282559 0.72299999 -0.01140894 1.2864146e-38 304 249
-0.019014901 0.72299999 -0.01140894 1.2864146e-38 305 249
-0.017747238 0.72299999 -0.01140894 1.2863071e-38 306 249
-0.01647958 0.72299999 -0.01140894 1.2770875e-38 307 249
-0.015190879 0.722 -0.01139316 1.2863071e-38 308 249
-0.013924973 0.722 -0.01139316 1.2863071e-38 309 249
-0.012659066 0.722 -0.01139316 1.2957063e-38 310 249
-0.01139316 0.722 -0.01139316 1.3141455e-38 311 249
-0.010127253 0.722 -0.01139316 1.3143604e-38 312 249
-0.0088613462 0.722 -0.01139316 1.3512386e-38 313 249
-0.0075954394 0.722 -0.01139316 1.3512386e-38 314 249
-0.0063295332 0.722 -0.01139316 1.3143604e-38 315 249
-0.0050636264 0.722 -0.01139316 1.3050351e-38 316 249
-0.0037977197 0.722 -0.01139316 1.3050351e-38 317 249
-0.0025318132 0.722 -0.01139316 1.2591547e-38 318 249
-0.0012659066 0.722 -0.01139316 1.2683742e-38 319 249
0 0.722 -0.01139316 1.2500444e-38 320 249
0.0012659066 0.722 -0.01139316 1.2869225e-38 321 249
0.0025318132 0.722 -0.01139316 1.2503331e-38 322 249
0.0037977197 0.722 -0.01139316 1.2872472e-38 323 249
0.0050706398 0.72299999 -0.01140894 1.2690596e-38 324 249
0.0063382997 0.72299999 -0.01140894 1.2782792e-38 325 249
0.0076270006 0.72500002 -0.0114405 1.1869117e-38 326 249
-0.037321456 0.73400003 -0.012869466 1.787874e-38 291 250
-0.036034506 0.73400003 -0.012869466 1.5202183e-38 292 250
-0.03474756 0.73400003 -0.012869466 1.2712901e-38 293 250
-0.033415023 0.73299998 -0.012851933 1.3244472e-38 294 250
-0.031998333 0.73000002 -0.012799333 1.3613256e-38 295 250
-0.030634239 0.72799999 -0.012764266 1.3980221e-38 296 250
-0.029317487 0.727 -0.012746733 1.3427047e-38 297 250
-0.028042812 0.727 -0.012746733 1.3974459e-38 298 250
-0.026694499 0.72500002 -0.012711667 1.3329089e-38 299 250
-0.025353199 0.72299999 -0.012676599 1.3511314e-38 300 250
-0.024052227 0.722 -0.012659066 1.3234367e-38 301 250
-0.022786319 0.722 -0.012659066 1.3141803e-38 302 250
-0.021520413 0.722 -0.012659066 1.3049609e-38 303 250
-0.020282559 0.72299999 -0.012676599 1.2957056e-38 304 250
-0.0189886 0.722 -0.012659066 1.2864503e-38 305 250
-0.017722692 0.722 -0.012659066 1.3047098e-38 306 250
-0.016456785 0.722 -0.012659066 1.3047098e-38 307 250
-0.015190879 0.722 -0.012659066 1.3139292e-38 308 250
-0.0138864 0.72000003 -0.012624 1.3139292e-38 309 250
-0.012624 0.72000003 -0.012624 1.304961e-38 310 250
-0.011361601 0.72000003 -0.012624 1.3141806e-38 311 250
-0.010099201 0.72000003 -0.012624 1.3236155e-38 312 250
-0.0088367993 0.72000003 -0.012624 1.3512383e-38 313 250
-0.0075743999 0.72000003 -0.012624 1.3512383e-38 314 250
-0.0063120001 0.72000003 -0.012624 1.314396e-38 315 250
-0.0050496003 0.72000003 -0.012624 1.2958862e-38 316 250
-0.0037872 0.72000003 -0.012624 1.2866666e-38 317 250
-0.0025248001 0.72000003 -0.012624 1.249898e-38 318 250
-0.0012624001 0.72000003 -0.012624 1.2683011e-38 319 250
0 0.72000003 -0.012624 1.2224203e-38 320 250
0.0012659066 0.722 -0.012659066 1.2408953e-38 321 250
0.0025318132 0.722 -0.012659066 1.2317851e-38 322 250
0.0037977197 0.722 -0.012659066 1.2410046e-38 323 250
0.0050636264 0.722 -0.012659066 1.2595512e-38 324 250
0.0063382997 0.72299999 -0.012676599 1.2871741e-38 325 250
0.0076270006 0.72500002 -0.012711667 1.2323604e-38 326 250
0.0088981669 0.72500002 -0.012711667 1.24158e-38 327 250
0.010169334 0.72500002 -0.012711667 1.1971035e-38 328 250
-0.038608398 0.73400003 -0.014156413 1.7510317e-38 290 251
-0.037321456 0.73400003 -0.014156413 1.7049339e-38 291 251
-0.036034506 0.73400003 -0.014156413 1.362802e-38 292 251
-0.034605537 0.73100001 -0.014098554 1.1138738e-38 293 251
-0.033278264 0.73000002 -0.014079267 1.3338467e-38 294 251
-0.031910665 0.72799999 -0.014040692 1.3706889e-38 295 251
-0.030592158 0.727 -0.014021406 1.3982738e-38 296 251
-0.029317487 0.727 -0.014021406 1.3337368e-38 297 251
-0.027965667 0.72500002 -0.013982833 1.3607831e-38 298 251
-0.026694499 0.72500002 -0.013982833 1.3330884e-38 299 251
-0.025353199 0.72299999 -0.01394426 1.3511314e-38 300 251
-0.024052227 0.722 -0.013924973 1.3326922e-38 301 251
-0.022786319 0.722 -0.013924973 1.3234001e-38 302 251
-0.021520413 0.722 -0.013924973 1.304961e-38 303 251
-0.020254506 0.722 -0.013924973 1.2957415e-38 304 251
-0.0189886 0.722 -0.013924973 1.2773385e-38 305 251
-0.017722692 0.722 -0.013924973 1.295598e-38 306 251
-0.0164112 0.72000003 -0.0138864 1.3140009e-38 307 251
-0.0151488 0.72000003 -0.0138864 1.3232562e-38 308 251
-0.0138864 0.72000003 -0.0138864 1.3324757e-38 309 251
-0.012624 0.72000003 -0.0138864 1.3235432e-38 310 251
-0.011361601 0.72000003 -0.0138864 1.3419821e-38 311 251
-0.010085173 0.71899998 -0.013867113 1.332942e-38 312 251
-0.0088245263 0.71899998 -0.013867113 1.3514169e-38 313 251
-0.0075638802 0.71899998 -0.013867113 1.3420185e-38 314 251
-0.0063032326 0.71899998 -0.013867113 1.3143957e-38 315 251
-0.0050496003 0.72000003 -0.0138864 1.2958859e-38 316 251
-0.0037872 0.72000003 -0.0138864 1.2774468e-38 317 251
-0.0025248001 0.72000003 -0.0138864 1.2407137e-38 318 251
-0.0012624001 0.72000003 -0.0138864 1.2499333e-38 319 251
0 0.72000003 -0.0138864 1.2041241e-38 320 251
0.0012624001 0.72000003 -0.0138864 1.2133437e-38 321 251
0.0025248001 0.72000003 -0.0138864 1.204161e-38 322 251
0.0037872 0.72000003 -0.0138864 1.2133806e-38 323 251
0.0050636264 0.722 -0.013924973 1.2226003e-38 324 251
0.0063382997 0.72299999 -0.01394426 1.2594784e-38 325 251
0.0076059597 0.72299999 -0.01394426 1.2412915e-38 326 251
0.0088981669 0.72500002 -0.013982833 1.2320718e-38 327 251
0.010169334 0.72500002 -0.013982833 1.149854e-38 328 251
0.0114405 0.72500002 -0.013982833 1.3895266e-38 329 251
0.012711667 0.72500002 -0.013982833 1.4743025e-38 330 251
-0.038608398 0.73400003 -0.01544336 1.7233376e-38 290 252
-0.037321456 0.73400003 -0.01544336 1.5942637e-38 291 252
-0.036034506 0.73400003 -0.01544336 1.223969e-38 292 252
-0.034605537 0.73100001 -0.01538024 1.0211387e-38 293 252
-0.033278264 0.73000002 -0.0153592 1.3799439e-38 294 252
-0.031910665 0.72799999 -0.01531712 1.3984189e-38 295 252
-0.030592158 0.727 -0.015296079 1.4076735e-38 296 252
-0.029236834 0.72500002 -0.015254001 1.3431366e-38 297 252
-0.02788852 0.72299999 -0.015211919 1.3517799e-38 298 252
-0.026620859 0.72299999 -0.015211919 1.2872431e-38 299 252
-0.025318133 0.722 -0.015190879 1.351168e-38 300 252
-0.0239856 0.72000003 -0.0151488 1.3143256e-38 301 252
-0.022723202 0.72000003 -0.0151488 1.3234723e-38 302 252
-0.021460801 0.72000003 -0.0151488 1.3050692e-38 303 252
-0.020198401 0.72000003 -0.0151488 1.3141086e-38 304 252
-0.018909698 0.71899998 -0.01512776 1.3048891e-38 305 252
-0.017649053 0.71899998 -0.01512776 1.3141444e-38 306 252
-0.0164112 0.72000003 -0.0151488 1.3141444e-38 307 252
-0.01512776 0.71899998 -0.01512776 1.3418027e-38 308 252
-0.013867113 0.71899998 -0.01512776 1.351058e-38 309 252
-0.012606465 0.71899998 -0.01512776 1.3420179e-38 310 252
-0.01134582 0.71899998 -0.01512776 1.3604927e-38 311 252
-0.010085173 0.71899998 -0.01512776 1.3604568e-38 312 252
-0.0088245263 0.71899998 -0.01512776 1.3604568e-38 313 252
-0.0075638802 0.71899998 -0.01512776 1.3419465e-38 314 252
-0.0063032326 0.71899998 -0.01512776 1.3051044e-38 315 252
-0.0050425865 0.71899998 -0.01512776 1.2865945e-38 316 252
-0.0037819401 0.71899998 -0.01512776 1.2773748e-38 317 252
-0.0025212932 0.71899998 -0.01512776 1.2407134e-38 318 252
-0.0012606466 0.71899998 -0.01512776 1.2407134e-38 319 252
0 0.71899998 -0.01512776 1.1949762e-38 320 252
0.0012624001 0.72000003 -0.0151488 1.1949762e-38 321 252
0.0025248001 0.72000003 -0.0151488 1.1858651e-38 322 252
0.0037872 0.72000003 -0.0151488 1.1858651e-38 323 252
0.0050496003 0.72000003 -0.0151488 1.1950493e-38 324 252
0.0063295332 0.722 -0.015190879 1.2134526e-38 325 252
0.0076059597 0.72299999 -0.015211919 1.2135973e-38 326 252
0.0088736191 0.72299999 -0.015211919 1.241292e-38 327 252
0.01014128 0.72299999 -0.015211919 1.1769361e-38 328 252
0.01140894 0.72299999 -0.015211919 1.1861558e-38 329 252
0.012711667 0.72500002 -0.015254001 1.2616402e-38 330 252
0.013982833 0.72500002 -0.015254001 1.6396783e-38 331 252
-0.038713597 0.736 -0.016775893 1.6680199e-38 290 253
-0.037321456 0.73400003 -0.016730307 1.4375669e-38 291 253
-0.036034506 0.73400003 -0.016730307 1.1128663e-38 292 253
-0.034605537 0.73100001 -0.016661927 1.1036466e-38 293 253
-0.033278264 0.73000002 -0.016639132 1.4074584e-38 294 253
-0.031910665 0.72799999 -0.016593546 1.4904345e-38 295 253
-0.030592158 0.727 -0.016570752 1.4172171e-38 296 253
-0.029156178 0.72299999 -0.01647958 1.3434606e-38 297 253
-0.02788852 0.72299999 -0.01647958 1.3795107e-38 298 253
-0.026584039 0.722 -0.016456785 1.3241933e-38 299 253
-0.025248 0.72000003 -0.0164112 1.3419484e-38 300 253
-0.0239856 0.72000003 -0.0164112 1.3235452e-38 301 253
-0.022691639 0.71899998 -0.016388407 1.3143253e-38 302 253
-0.021430992 0.71899998 -0.016388407 1.3051058e-38 303 253
-0.020170346 0.71899998 -0.016388407 1.3050336e-38 304 253
-0.018909698 0.71899998 -0.016388407 1.295814e-38 305 253
-0.017649053 0.71899998 -0.016388407 1.3234001e-38 306 253
-0.016388407 0.71899998 -0.016388407 1.3234001e-38 307 253
-0.015085679 0.71700001 -0.016342819 1.3509862e-38 308 253
-0.013828539 0.71700001 -0.016342819 1.3602417e-38 309 253
-0.0125714 0.71700001 -0.016342819 1.3512018e-38 310 253
-0.01131426 0.71700001 -0.016342819 1.3604213e-38 311 253
-0.01005712 0.71700001 -0.016342819 1.3512381e-38 312 253
-0.0087999795 0.71700001 -0.016342819 1.3512381e-38 313 253
-0.0075428397 0.71700001 -0.016342819 1.3235802e-38 314 253
-0.0062857 0.71700001 -0.016342819 1.3051411e-38 315 253
-0.0050285598 0.71700001 -0.016342819 1.2865945e-38 316 253
-0.0037819401 0.71899998 -0.016388407 1.2773748e-38 317 253
-0.0025142799 0.71700001 -0.016342819 1.2407488e-38 318 253
-0.00125714 0.71700001 -0.016342819 1.2407488e-38 319 253
0 0.71700001 -0.016342819 1.1949752e-38 320 253
0.0012606466 0.71899998 -0.016388407 1.2318174e-38 321 253
0.0025212932 0.71899998 -0.016388407 1.1676408e-38 322 253
0.0037819401 0.71899998 -0.016388407 1.1768605e-38 323 253
0.0050425865 0.71899998 -0.016388407 1.1951197e-38 324 253
0.0063120001 0.72000003 -0.0164112 1.1951197e-38 325 253
0.0075954394 0.722 -0.016456785 1.2134512e-38 326 253
0.0088613462 0.722 -0.016456785 1.2318904e-38 327 253
0.010127253 0.722 -0.016456785 1.22278e-38 328 253
0.01139316 0.722 -0.016456785 1.2135605e-38 329 253
0.012676599 0.72299999 -0.01647958 1.1131548e-38 330 253
0.013982833 0.72500002 -0.016525166 1.4542788e-38 331 253
0.015254001 0.72500002 -0.016525166 1.6219225e-38 332 253
-0.038713597 0.736 -0.018066347 1.5848998e-38 290 254
-0.037321456 0.73400003 -0.018017253 1.2437758e-38 291 254
-0.036034506 0.73400003 -0.018017253 1.0848837e-38 292 254
-0.034605537 0.73100001 -0.017943613 1.1770435e-38 293 254
-0.033278264 0.73000002 -0.017919067 1.4078903e-38 294 254
-0.031910665 0.72799999 -0.017869972 1.4724273e-38 295 254
-0.030592158 0.727 -0.017845426 1.4172171e-38 296 254
-0.029156178 0.72299999 -0.017747238 1.3249856e-38 297 254
-0.027849946 0.722 -0.017722692 1.3519962e-38 298 254
-0.026510401 0.72000003 -0.017673599 1.2690201e-38 299 254
-0.025248 0.72000003 -0.017673599 1.3237973e-38 300 254
-0.023952285 0.71899998 -0.017649053 1.2684799e-38 301 254
-0.022691639 0.71899998 -0.017649053 1.2868462e-38 302 254
-0.021430992 0.71899998 -0.017649053 1.2776266e-38 303 254
-0.020170346 0.71899998 -0.017649053 1.3050692e-38 304 254
-0.018857099 0.71700001 -0.017599959 1.3050692e-38 305 254
-0.017599959 0.71700001 -0.017599959 1.2958496e-38 306 254
-0.016342819 0.71700001 -0.017599959 1.2958496e-38 307 254
-0.01506464 0.71600002 -0.017575413 1.3141453e-38 308 254
-0.013809253 0.71600002 -0.017575413 1.3326203e-38 309 254
-0.012553867 0.71600002 -0.017575413 1.3326922e-38 310 254
-0.01129848 0.71600002 -0.017575413 1.3419117e-38 311 254
-0.010043093 0.71600002 -0.017575413 1.3326919e-38 312 254
-0.0087877065 0.71600002 -0.017575413 1.3326919e-38 313 254
-0.00753232 0.71600002 -0.017575413 1.3326197e-38 314 254
-0.0062593995 0.71399999 -0.017526319 1.3234001e-38 315 254
-0.0050075199 0.71399999 -0.017526319 1.3049609e-38 316 254
-0.00376616 0.71600002 -0.017575413 1.2773385e-38 317 254
-0.0025107733 0.71600002 -0.017575413 1.2590435e-38 318 254
-0.0012553866 0.71600002 -0.017575413 1.2590435e-38 319 254
0 0.71700001 -0.017599959 1.2132708e-38 320 254
0.00125714 0.71700001 -0.017599959 1.2225263e-38 321 254
0.0025142799 0.71700001 -0.017599959 1.1951917e-38 322 254
0.0037714199 0.71700001 -0.017599959 1.2044113e-38 323 254
0.0050425865 0.71899998 -0.017649053 1.1952633e-38 324 254
0.0063032326 0.71899998 -0.017649053 1.1768602e-38 325 254
0.0075743999 0.72000003 -0.017673599 1.1952283e-38 326 254
0.0088367993 0.72000003 -0.017673599 1.1768252e-38 327 254
0.010099201 0.72000003 -0.017673599 1.1951935e-38 328 254
0.011361601 0.72000003 -0.017673599 1.1951935e-38 329 254
0.012659066 0.722 -0.017722692 1.0756286e-38 330 254
0.013924973 0.722 -0.017722692 1.213922e-38 331 254
0.015190879 0.722 -0.017722692 1.455646e-38 332 254
0.016456785 0.722 -0.017722692 1.7691111e-38 333 254
-0.038713597 0.736 -0.019356798 1.5385498e-38 290 255
-0.037321456 0.73400003 -0.019304199 1.0775716e-38 291 255
-0.036034506 0.73400003 -0.019304199 1.1029633e-38 292 255
-0.034605537 0.73100001 -0.019225299 1.2688794e-38 293 255
-0.033323854 0.73100001 -0.019225299 1.3618294e-38 294 255
-0.031910665 0.72799999 -0.0191464 1.4079272e-38 295 255
-0.030508002 0.72500002 -0.0190675 1.3986354e-38 296 255
-0.029156178 0.72299999 -0.019014901 1.3064397e-38 297 255
-0.027849946 0.722 -0.0189886 1.3517813e-38 298 255
-0.026510401 0.72000003 -0.018935999 1.3056835e-38 299 255
-0.025248 0.72000003 -0.018935999 1.3144705e-38 300 255
-0.023952285 0.71899998 -0.018909698 1.2959955e-38 301 255
-0.02262852 0.71700001 -0.018857099 1.3050702e-38 302 255
-0.021371379 0.71700001 -0.018857099 1.2958506e-38 303 255
-0.020114239 0.71700001 -0.018857099 1.2958143e-38 304 255
-0.018857099 0.71700001 -0.018857099 1.2865948e-38 305 255
-0.017599959 0.71700001 -0.018857099 1.2956708e-38 306 255
-0.016320027 0.71600002 -0.0188308 1.2956708e-38 307 255
-0.01506464 0.71600002 -0.0188308 1.304854e-38 308 255
-0.013809253 0.71600002 -0.0188308 1.304854e-38 309 255
-0.012553867 0.71600002 -0.0188308 1.304854e-38 310 255
-0.011266919 0.71399999 -0.018778199 1.304854e-38 311 255
-0.01001504 0.71399999 -0.018778199 1.3140739e-38 312 255
-0.0087631596 0.71399999 -0.018778199 1.3048185e-38 313 255
-0.0075112795 0.71399999 -0.018778199 1.3141455e-38 314 255
-0.0062506334 0.713 -0.018751899 1.3141455e-38 315 255
-0.0050005065 0.713 -0.018751899 1.2958494e-38 316 255
-0.0037556398 0.71399999 -0.018778199 1.2866298e-38 317 255
-0.0025107733 0.71600002 -0.0188308 1.2774468e-38 318 255
-0.0012553866 0.71600002 -0.0188308 1.2497881e-38 319 255
0 0.71600002 -0.0188308 1.2314942e-38 320 255
0.0012553866 0.71600002 -0.0188308 1.2407137e-38 321 255
0.0025107733 0.71600002 -0.0188308 1.1949765e-38 322 255
0.0037714199 0.71700001 -0.018857099 1.2134156e-38 323 255
0.0050285598 0.71700001 -0.018857099 1.2044115e-38 324 255
0.0062857 0.71700001 -0.018857099 1.2136311e-38 325 255
0.0075638802 0.71899998 -0.018909698 1.1952636e-38 326 255
0.0088367993 0.72000003 -0.018935999 1.1952636e-38 327 255
0.010099201 0.72000003 -0.018935999 1.1951567e-38 328 255
0.011361601 0.72000003 -0.018935999 1.2043762e-38 329 255
0.012624 0.72000003 -0.018935999 1.1213298e-38 330 255
0.013924973 0.722 -0.0189886 1.0936711e-38 331 255
0.015190879 0.722 -0.0189886 1.2984816e-38 332 255
0.016456785 0.722 -0.0189886 1.7041423e-38 333 255
-0.040004052 0.736 -0.020647252 1.7969493e-38 289 256
-0.038713597 0.736 -0.020647252 1.4830523e-38 290 256
-0.037423145 0.736 -0.020647252 9.5753723e-39 291 256
-0.036034506 0.73400003 -0.020591147 1.1487014e-38 292 256
-0.034605537 0.73100001 -0.020506985 1.305434e-38 293 256
-0.033323854 0.73100001 -0.020506985 1.3243766e-38 294 256
-0.031910665 0.72799999 -0.020422826 1.3428158e-38 295 256
-0.030508002 0.72500002 -0.020338668 1.3519983e-38 296 256
-0.029156178 0.72299999 -0.020282559 1.296681e-38 297 256
-0.027849946 0.722 -0.020254506 1.3240506e-38 298 256
-0.026584039 0.722 -0.020254506 1.2779528e-38 299 256
-0.025248 0.72000003 -0.020198401 1.3052507e-38 300 256
-0.023952285 0.71899998 -0.020170346 1.2867755e-38 301 256
-0.02262852 0.71700001 -0.020114239 1.286739e-38 302 256
-0.021371379 0.71700001 -0.020114239 1.2775194e-38 303 256
-0.020114239 0.71700001 -0.020114239 1.2865948e-38 304 256
-0.018857099 0.71700001 -0.020114239 1.2865948e-38 305 256
-0.017575413 0.71600002 -0.020086186 1.2957063e-38 306 256
-0.016320027 0.71600002 -0.020086186 1.2772673e-38 307 256
-0.01506464 0.71600002 -0.020086186 1.268048e-38 308 256
-0.01377068 0.71399999 -0.020030079 1.268048e-38 309 256
-0.012518799 0.71399999 -0.020030079 1.2588647e-38 310 256
-0.011266919 0.71399999 -0.020030079 1.2588647e-38 311 256
-0.01001504 0.71399999 -0.020030079 1.2680124e-38 312 256
-0.0087508867 0.713 -0.020002026 1.2680124e-38 313 256
-0.0075007593 0.713 -0.020002026 1.2865945e-38 314 256
-0.0062506334 0.713 -0.020002026 1.3050336e-38 315 256
-0.0050005065 0.713 -0.020002026 1.3051044e-38 316 256
-0.0037503797 0.713 -0.020002026 1.2958849e-38 317 256
-0.0025037599 0.71399999 -0.020030079 1.2866297e-38 318 256
-0.00125188 0.71399999 -0.020030079 1.2681908e-38 319 256
0 0.71399999 -0.020030079 1.2406051e-38 320 256
0.00125188 0.71399999 -0.020030079 1.2498607e-38 321 256
0.0025037599 0.71399999 -0.020030079 1.2131992e-38 322 256
0.00376616 0.71600002 -0.020086186 1.2316384e-38 323 256
0.0050215465 0.71600002 -0.020086186 1.2042316e-38 324 256
0.0062769335 0.71600002 -0.020086186 1.2226709e-38 325 256
0.0075428397 0.71700001 -0.020114239 1.204376e-38 326 256
0.0088245263 0.71899998 -0.020170346 1.204376e-38 327 256
0.010127253 0.722 -0.020254506 1.1861169e-38 328 256
0.011361601 0.72000003 -0.020198401 1.1861169e-38 329 256
0.012624 0.72000003 -0.020198401 1.1398759e-38 330 256
0.013924973 0.722 -0.020254506 1.029277e-38 331 256
0.015190879 0.722 -0.020254506 1.1501407e-38 332 256
-0.040004052 0.736 -0.021937706 1.7601786e-38 289 257
-0.038713597 0.736 -0.021937706 1.4552131e-38 290 257
-0.037321456 0.73400003 -0.021878093 9.2966218e-39 291 257
-0.035985414 0.73299998 -0.021848286 1.1762876e-38 292 257
-0.034605537 0.73100001 -0.021788673 1.2777027e-38 293 257
-0.033278264 0.73000002 -0.021758866 1.2779175e-38 294 257
-0.031910665 0.72799999 -0.021699252 1.2779175e-38 295 257
-0.030508002 0.72500002 -0.021609833 1.3054317e-38 296 257
-0.029156178 0.72299999 -0.021550218 1.2962121e-38 297 257
-0.027849946 0.722 -0.021520413 1.2869923e-38 298 257
-0.026510401 0.72000003 -0.021460801 1.2685532e-38 299 257
-0.025212931 0.71899998 -0.021430992 1.2684443e-38 300 257
-0.023952285 0.71899998 -0.021430992 1.2684443e-38 301 257
-0.02262852 0.71700001 -0.021371379 1.2867745e-38 302 257
-0.021371379 0.71700001 -0.021371379 1.277555e-38 303 257
-0.020114239 0.71700001 -0.021371379 1.2866661e-38 304 257
-0.0188308 0.71600002 -0.021341572 1.2866661e-38 305 257
-0.017575413 0.71600002 -0.021341572 1.2774465e-38 306 257
-0.016320027 0.71600002 -0.021341572 1.2498237e-38 307 257
-0.015022559 0.71399999 -0.021281958 1.277195e-38 308 257
-0.013751393 0.713 -0.021252153 1.277195e-38 309 257
-0.012501267 0.713 -0.021252153 1.2587563e-38 310 257
-0.011251139 0.713 -0.021252153 1.2495367e-38 311 257
-0.010001013 0.713 -0.021252153 1.258721e-38 312 257
-0.0087263398 0.71100003 -0.021192541 1.258721e-38 313 257
-0.0074797203 0.71100003 -0.021192541 1.2774468e-38 314 257
-0.0062330998 0.71100003 -0.021192541 1.2958859e-38 315 257
-0.0049864799 0.71100003 -0.021192541 1.3143957e-38 316 257
-0.0037398601 0.71100003 -0.021192541 1.3051761e-38 317 257
-0.0024932399 0.71100003 -0.021192541 1.2958849e-38 318 257
-0.0012501266 0.713 -0.021252153 1.2682267e-38 319 257
0 0.713 -0.021252153 1.2498237e-38 320 257
0.0012501266 0.713 -0.021252153 1.2590431e-38 321 257
0.0025002533 0.713 -0.021252153 1.2222742e-38 322 257
0.0037503797 0.713 -0.021252153 1.2407134e-38 323 257
0.0050075199 0.71399999 -0.021281958 1.2132714e-38 324 257
0.0062769335 0.71600002 -0.021341572 1.222491e-38 325 257
0.00753232 0.71600002 -0.021341572 1.1950846e-38 326 257
0.0087999795 0.71700001 -0.021371379 1.2227075e-38 327 257
0.010099201 0.72000003 -0.021460801 1.1952283e-38 328 257
0.01139316 0.722 -0.021520413 1.2136674e-38 329 257
0.012659066 0.722 -0.021520413 1.1676419e-38 330 257
0.013924973 0.722 -0.021520413 1.103105e-38 331 257
0.015190879 0.722 -0.021520413 1.0297103e-38 332 257
0.016525166 0.72500002 -0.021609833 1.499908e-38 333 257
-0.039895348 0.73400003 -0.023165042 1.7416317e-38 289 258
-0.038608398 0.73400003 -0.023165042 1.464109e-38 290 258
-0.037321456 0.73400003 -0.023165042 9.7550818e-39 291 258
-0.035985414 0.73299998 -0.023133477 1.18565e-38 292 258
-0.034605537 0.73100001 -0.02307036 1.2317118e-38 293 258
-0.033278264 0.73000002 -0.023038799 1.2592616e-38 294 258
-0.03186683 0.727 -0.022944121 1.250042e-38 295 258
-0.030508002 0.72500002 -0.022880999 1.2866686e-38 296 258
-0.029156178 0.72299999 -0.02281788 1.2866686e-38 297 258
-0.027849946 0.722 -0.022786319 1.2775565e-38 298 258
-0.026510401 0.72000003 -0.022723202 1.2683011e-38 299 258
-0.025212931 0.71899998 -0.022691639 1.2867395e-38 300 258
-0.023952285 0.71899998 -0.022691639 1.2867395e-38 301 258
-0.02262852 0.71700001 -0.02262852 1.2867392e-38 302 258
-0.021371379 0.71700001 -0.02262852 1.2867392e-38 303 258
-0.020114239 0.71700001 -0.02262852 1.2775194e-38 304 258
-0.0188308 0.71600002 -0.022596961 1.2775194e-38 305 258
-0.017575413 0.71600002 -0.022596961 1.2775547e-38 306 258
-0.016320027 0.71600002 -0.022596961 1.2591156e-38 307 258
-0.015022559 0.71399999 -0.022533838 1.2590435e-38 308 258
-0.013751393 0.713 -0.022502279 1.2405685e-38 309 258
-0.012501267 0.713 -0.022502279 1.2404967e-38 310 258
-0.01121958 0.71100003 -0.022439159 1.2128384e-38 311 258
-0.0099729598 0.71100003 -0.022439159 1.2495367e-38 312 258
-0.0087263398 0.71100003 -0.022439159 1.258792e-38 313 258
-0.0074797203 0.71100003 -0.022439159 1.2681549e-38 314 258
-0.0062243328 0.70999998 -0.022407599 1.3050689e-38 315 258
-0.0049794666 0.70999998 -0.022407599 1.3052479e-38 316 258
-0.0037345996 0.70999998 -0.022407599 1.2868449e-38 317 258
-0.0024932399 0.71100003 -0.022439159 1.2959567e-38 318 258
-0.00124662 0.71100003 -0.022439159 1.277482e-38 319 258
0 0.71100003 -0.022439159 1.2591153e-38 320 258
0.00124662 0.71100003 -0.022439159 1.240676e-38 321 258
0.0024932399 0.71100003 -0.022439159 1.222202e-38 322 258
0.0037503797 0.713 -0.022502279 1.2406051e-38 323 258
0.0050005065 0.713 -0.022502279 1.2314939e-38 324 258
0.0062506334 0.713 -0.022502279 1.2407134e-38 325 258
0.0075112795 0.71399999 -0.022533838 1.1949396e-38 326 258
0.0087877065 0.71600002 -0.022596961 1.2134146e-38 327 258
0.01005712 0.71700001 -0.02262852 1.19512e-38 328 258
0.011361601 0.72000003 -0.022723202 1.2227428e-38 329 258
0.012659066 0.722 -0.022786319 1.1768973e-38 330 258
0.0138864 0.72000003 -0.022723202 1.1400191e-38 331 258
0.0151488 0.72000003 -0.022723202 1.010767e-38 332 258
0.016456785 0.722 -0.022786319 1.3611103e-38 333 258
0.017747238 0.72299999 -0.02281788 1.6217414e-38 334 258
-0.039895348 0.73400003 -0.024451986 1.704789e-38 289 259
-0.038608398 0.73400003 -0.024451986 1.4456336e-38 290 259
-0.037321456 0.73400003 -0.024451986 1.0307533e-38 291 259
-0.035985414 0.73299998 -0.024418673 1.2317824e-38 292 259
-0.034605537 0.73100001 -0.024352046 1.2410021e-38 293 259
-0.033187091 0.72799999 -0.024252106 1.2406781e-38 294 259
-0.03186683 0.727 -0.024218792 1.2314586e-38 295 259
-0.030508002 0.72500002 -0.024152167 1.2404997e-38 296 259
-0.029156178 0.72299999 -0.024085538 1.2497553e-38 297 259
-0.027849946 0.722 -0.024052227 1.2222759e-38 298 259
-0.026510401 0.72000003 -0.0239856 1.2314954e-38 299 259
-0.025248 0.72000003 -0.0239856 1.2406787e-38 300 259
-0.023952285 0.71899998 -0.023952285 1.2683014e-38 301 259
-0.022596961 0.71600002 -0.023852346 1.2683367e-38 302 259
-0.021341572 0.71600002 -0.023852346 1.2775562e-38 303 259
-0.020086186 0.71600002 -0.023852346 1.2684793e-38 304 259
-0.0188308 0.71600002 -0.023852346 1.2869183e-38 305 259
-0.017575413 0.71600002 -0.023852346 1.296101e-38 306 259
-0.016274439 0.71399999 -0.02378572 1.2776619e-38 307 259
-0.015022559 0.71399999 -0.02378572 1.2959567e-38 308 259
-0.013751393 0.713 -0.023752406 1.2591149e-38 309 259
-0.012501267 0.713 -0.023752406 1.2773385e-38 310 259
-0.01121958 0.71100003 -0.023685781 1.2496802e-38 311 259
-0.0099729598 0.71100003 -0.023685781 1.240389e-38 312 259
-0.0087263398 0.71100003 -0.023685781 1.2496085e-38 313 259
-0.0074797203 0.71100003 -0.023685781 1.2497884e-38 314 259
-0.0062243328 0.70999998 -0.023652466 1.2866666e-38 315 259
-0.0049794666 0.70999998 -0.023652466 1.2776263e-38 316 259
-0.0037345996 0.70999998 -0.023652466 1.2776263e-38 317 259
-0.0024897333 0.70999998 -0.023652466 1.2684421e-38 318 259
-0.0012448666 0.70999998 -0.023652466 1.2500389e-38 319 259
0 0.71100003 -0.023685781 1.2498237e-38 320 259
0.00124662 0.71100003 -0.023685781 1.2498237e-38 321 259
0.0024932399 0.71100003 -0.023685781 1.2222376e-38 322 259
0.0037398601 0.71100003 -0.023685781 1.2406407e-38 323 259
0.0049864799 0.71100003 -0.023685781 1.2223459e-38 324 259
0.0062506334 0.713 -0.023752406 1.2315655e-38 325 259
0.0075007593 0.713 -0.023752406 1.2131992e-38 326 259
0.0087631596 0.71399999 -0.02378572 1.2131992e-38 327 259
0.010043093 0.71600002 -0.023852346 1.204196e-38 328 259
0.01131426 0.71700001 -0.02388566 1.2134156e-38 329 259
0.0125714 0.71700001 -0.02388566 1.1859017e-38 330 259
0.013867113 0.71899998 -0.023952285 1.1951214e-38 331 259
0.0151488 0.72000003 -0.0239856 1.0566127e-38 332 259
0.0164112 0.72000003 -0.0239856 1.1488083e-38 333 259
0.017722692 0.722 -0.024052227 1.529365e-38 334 259
0.0189886 0.722 -0.024052227 1.6953531e-38 335 259
-0.039895348 0.73400003 -0.025738932 1.6772026e-38 289 260
-0.038608398 0.73400003 -0.025738932 1.4272302e-38 290 260
-0.037321456 0.73400003 -0.025738932 1.0215693e-38 291 260
-0.035985414 0.73299998 -0.025703866 1.2410021e-38 292 260
-0.034558199 0.73000002 -0.025598666 1.1949043e-38 293 260
-0.033187091 0.72799999 -0.025528532 1.240749e-38 294 260
-0.031779166 0.72500002 -0.025423333 1.2038348e-38 295 260
-0.030423839 0.72299999 -0.025353199 1.2312421e-38 296 260
-0.029115854 0.722 -0.025318133 1.2312421e-38 297 260
-0.027849946 0.722 -0.025318133 1.2404619e-38 298 260
-0.026510401 0.72000003 -0.025248 1.258865e-38 299 260
-0.025212931 0.71899998 -0.025212931 1.2497178e-38 300 260
-0.023952285 0.71899998 -0.025212931 1.2589733e-38 301 260
-0.022596961 0.71600002 -0.025107734 1.2683367e-38 302 260
-0.021341572 0.71600002 -0.025107734 1.2959955e-38 303 260
-0.020086186 0.71600002 -0.025107734 1.2869913e-38 304 260
-0.0188308 0.71600002 -0.025107734 1.3238336e-38 305 260
-0.017575413 0.71600002 -0.025107734 1.2872431e-38 306 260
-0.016274439 0.71399999 -0.025037598 1.3056823e-38 307 260
-0.015001519 0.713 -0.025002534 1.2872794e-38 308 260
-0.013751393 0.713 -0.025002534 1.2412175e-38 309 260
-0.012501267 0.713 -0.025002534 1.277556e-38 310 260
-0.01121958 0.71100003 -0.024932399 1.2499333e-38 311 260
-0.0099729598 0.71100003 -0.024932399 1.2404972e-38 312 260
-0.0087263398 0.71100003 -0.024932399 1.2404972e-38 313 260
-0.0074691991 0.70999998 -0.024897331 1.258792e-38 314 260
-0.0062243328 0.70999998 -0.024897331 1.2956338e-38 315 260
-0.0049794666 0.70999998 -0.024897331 1.2866298e-38 316 260
-0.0037345996 0.70999998 -0.024897331 1.2958494e-38 317 260
-0.0024897333 0.70999998 -0.024897331 1.2867017e-38 318 260
-0.0012448666 0.70999998 -0.024897331 1.2867017e-38 319 260
0 0.70999998 -0.024897331 1.2591156e-38 320 260
0.00124662 0.71100003 -0.024932399 1.2222373e-38 321 260
0.0024932399 0.71100003 -0.024932399 1.2222742e-38 322 260
0.0037398601 0.71100003 -0.024932399 1.2130546e-38 323 260
0.0049864799 0.71100003 -0.024932399 1.2039427e-38 324 260
0.0062330998 0.71100003 -0.024932399 1.2039427e-38 325 260
0.0075007593 0.713 -0.025002534 1.2040147e-38 326 260
0.0087508867 0.713 -0.025002534 1.2040147e-38 327 260
0.01001504 0.71399999 -0.025037598 1.1949396e-38 328 260
0.01129848 0.71600002 -0.025107734 1.2041592e-38 329 260
0.0125714 0.71700001 -0.0251428 1.1766452e-38 330 260
0.013867113 0.71899998 -0.025212931 1.1766452e-38 331 260
0.0151488 0.72000003 -0.025248 1.1393357e-38 332 260
0.0164112 0.72000003 -0.025248 1.1577389e-38 333 260
0.017673599 0.72000003 -0.025248 1.390855e-38 334 260
0.018935999 0.72000003 -0.025248 1.6305638e-38 335 260
-0.041294504 0.736 -0.02709952 1.7416673e-38 288 261
-0.039895348 0.73400003 -0.02702588 1.6863499e-38 289 261
-0.038608398 0.73400003 -0.02702588 1.4456686e-38 290 261
-0.037321456 0.73400003 -0.02702588 1.058447e-38 291 261
-0.035985414 0.73299998 -0.026989058 1.2501498e-38 292 261
-0.034558199 0.73000002 -0.026878599 1.2317105e-38 293 261
-0.033141505 0.727 -0.026768139 1.2405335e-38 294 261
-0.031691495 0.72299999 -0.026620859 1.2220944e-38 295 261
-0.030423839 0.72299999 -0.026620859 1.2128748e-38 296 261
-0.029115854 0.722 -0.026584039 1.2220944e-38 297 261
-0.027849946 0.722 -0.026584039 1.2037279e-38 298 261
-0.026510401 0.72000003 -0.026510401 1.2037279e-38 299 261
-0.025212931 0.71899998 -0.02647358 1.2221673e-38 300 261
-0.023952285 0.71899998 -0.02647358 1.2405704e-38 301 261
-0.02262852 0.71700001 -0.02639994 1.2499699e-38 302 261
-0.021371379 0.71700001 -0.02639994 1.2960677e-38 303 261
-0.020086186 0.71600002 -0.026363119 1.2780234e-38 304 261
-0.0188308 0.71600002 -0.026363119 1.3240854e-38 305 261
-0.017526319 0.71399999 -0.026289478 1.3152962e-38 306 261
-0.016251646 0.713 -0.026252659 1.3337353e-38 307 261
-0.015001519 0.713 -0.026252659 1.3337002e-38 308 261
-0.013751393 0.713 -0.026252659 1.3244807e-38 309 261
-0.0124662 0.71100003 -0.026179021 1.3240501e-38 310 261
-0.01121958 0.71100003 -0.026179021 1.2226709e-38 311 261
-0.0099729598 0.71100003 -0.026179021 1.2590084e-38 312 261
-0.0087140659 0.70999998 -0.026142199 1.2313137e-38 313 261
-0.0074691991 0.70999998 -0.026142199 1.2312774e-38 314 261
-0.0062243328 0.70999998 -0.026142199 1.2589001e-38 315 261
-0.0049794666 0.70999998 -0.026142199 1.2406404e-38 316 261
-0.0037345996 0.70999998 -0.026142199 1.2591156e-38 317 261
-0.0024897333 0.70999998 -0.026142199 1.2500036e-38 318 261
-0.0012448666 0.70999998 -0.026142199 1.2407841e-38 319 261
0 0.70999998 -0.026142199 1.2407841e-38 320 261
0.0012448666 0.70999998 -0.026142199 1.2315644e-38 321 261
0.0024932399 0.71100003 -0.026179021 1.2222376e-38 322 261
0.0037398601 0.71100003 -0.026179021 1.2406407e-38 323 261
0.0049864799 0.71100003 -0.026179021 1.2039427e-38 324 261
0.0062330998 0.71100003 -0.026179021 1.2039427e-38 325 261
0.0075007593 0.713 -0.026252659 1.203943e-38 326 261
0.0087508867 0.713 -0.026252659 1.2223462e-38 327 261
0.01001504 0.71399999 -0.026289478 1.1857203e-38 328 261
0.01129848 0.71600002 -0.026363119 1.1857203e-38 329 261
0.0125714 0.71700001 -0.02639994 1.1673538e-38 330 261
0.013867113 0.71899998 -0.02647358 1.1673538e-38 331 261
0.01512776 0.71899998 -0.02647358 1.1301877e-38 332 261
0.016388407 0.71899998 -0.02647358 1.08409e-38 333 261
0.017673599 0.72000003 -0.026510401 1.3073749e-38 334 261
0.018935999 0.72000003 -0.026510401 1.6116563e-38 335 261
-0.041294504 0.736 -0.028389972 1.723336e-38 288 262
-0.039895348 0.73400003 -0.028312827 1.6680187e-38 289 262
-0.038608398 0.73400003 -0.028312827 1.4641077e-38 290 262
-0.037321456 0.73400003 -0.028312827 1.0861057e-38 291 262
-0.035985414 0.73299998 -0.028274251 1.2777362e-38 292 262
-0.034558199 0.73000002 -0.028158534 1.2592969e-38 293 262
-0.033141505 0.727 -0.028042812 1.2498607e-38 294 262
-0.031691495 0.72299999 -0.02788852 1.2037629e-38 295 262
-0.030423839 0.72299999 -0.02788852 1.2128743e-38 296 262
-0.029115854 0.722 -0.027849946 1.1944713e-38 297 262
-0.027772799 0.72000003 -0.027772799 1.1944358e-38 298 262
-0.026510401 0.72000003 -0.027772799 1.1944358e-38 299 262
-0.025212931 0.71899998 -0.027734226 1.2220944e-38 300 262
-0.023952285 0.71899998 -0.027734226 1.2405335e-38 301 262
-0.02262852 0.71700001 -0.027657079 1.2407137e-38 302 262
-0.021371379 0.71700001 -0.027657079 1.2960311e-38 303 262
-0.020086186 0.71600002 -0.027618507 1.2687686e-38 304 262
-0.0188308 0.71600002 -0.027618507 1.3517448e-38 305 262
-0.017526319 0.71399999 -0.02754136 1.324734e-38 306 262
-0.016251646 0.713 -0.027502786 1.3616483e-38 307 262
-0.015001519 0.713 -0.027502786 1.370941e-38 308 262
-0.01371282 0.71100003 -0.027425639 1.3893801e-38 309 262
-0.0124662 0.71100003 -0.027425639 1.3799445e-38 310 262
-0.01121958 0.71100003 -0.027425639 1.2139924e-38 311 262
-0.0099589331 0.70999998 -0.027387066 1.2592247e-38 312 262
-0.0087140659 0.70999998 -0.027387066 1.2223106e-38 313 262
-0.0074691991 0.70999998 -0.027387066 1.2403535e-38 314 262
-0.0062243328 0.70999998 -0.027387066 1.2496089e-38 315 262
-0.0049654399 0.708 -0.027309919 1.2222372e-38 316 262
-0.00372408 0.708 -0.027309919 1.2498956e-38 317 262
-0.00248272 0.708 -0.027309919 1.259115e-38 318 262
-0.00124136 0.708 -0.027309919 1.2498955e-38 319 262
0 0.708 -0.027309919 1.2406404e-38 320 262
0.0012448666 0.70999998 -0.027387066 1.2222373e-38 321 262
0.0024897333 0.70999998 -0.027387066 1.2222023e-38 322 262
0.0037345996 0.70999998 -0.027387066 1.2129827e-38 323 262
0.0049864799 0.71100003 -0.027425639 1.2130546e-38 324 262
0.0062330998 0.71100003 -0.027425639 1.2130546e-38 325 262
0.0075007593 0.713 -0.027502786 1.1947234e-38 326 262
0.0087508867 0.713 -0.027502786 1.203943e-38 327 262
0.01001504 0.71399999 -0.02754136 1.1856482e-38 328 262
0.01129848 0.71600002 -0.027618507 1.1856482e-38 329 262
0.012553867 0.71600002 -0.027618507 1.1765008e-38 330 262
0.013828539 0.71700001 -0.027657079 1.1672452e-38 331 262
0.015085679 0.71700001 -0.027657079 1.139443e-38 332 262
0.016388407 0.71899998 -0.027734226 1.0933452e-38 333 262
0.017649053 0.71899998 -0.027734226 1.242334e-38 334 262
0.018909698 0.71899998 -0.027734226 1.6295557e-38 335 262
-0.039895348 0.73400003 -0.029599773 1.7139363e-38 289 263
-0.038608398 0.73400003 -0.029599773 1.5194248e-38 290 263
-0.037270606 0.73299998 -0.029559445 1.1322032e-38 291 263
-0.035887226 0.73100001 -0.029478792 1.3055023e-38 292 263
-0.034463517 0.72799999 -0.029357811 1.2409654e-38 293 263
-0.033141505 0.727 -0.029317487 1.2407488e-38 294 263
-0.031691495 0.72299999 -0.029156178 1.2038345e-38 295 263
-0.030423839 0.72299999 -0.029156178 1.2037983e-38 296 263
-0.029115854 0.722 -0.029115854 1.1945789e-38 297 263
-0.027772799 0.72000003 -0.029035201 1.1944714e-38 298 263
-0.026510401 0.72000003 -0.029035201 1.1944714e-38 299 263
-0.025212931 0.71899998 -0.028994869 1.2220225e-38 300 263
-0.02388566 0.71700001 -0.028914221 1.2312421e-38 301 263
-0.022596961 0.71600002 -0.028873893 1.2222389e-38 302 263
-0.021341572 0.71600002 -0.028873893 1.2683367e-38 303 263
-0.020086186 0.71600002 -0.028873893 1.2686258e-38 304 263
-0.0188308 0.71600002 -0.028873893 1.3608213e-38 305 263
-0.017526319 0.71399999 -0.028793238 1.3429583e-38 306 263
-0.016251646 0.713 -0.028752912 1.3982757e-38 307 263
-0.015001519 0.713 -0.028752912 1.3894527e-38 308 263
-0.01371282 0.71100003 -0.028672259 1.426331e-38 309 263
-0.0124662 0.71100003 -0.028672259 1.4171833e-38 310 263
-0.011203799 0.70999998 -0.028631933 1.2604867e-38 311 263
-0.0099589331 0.70999998 -0.028631933 1.2779525e-38 312 263
-0.0087140659 0.70999998 -0.028631933 1.1396591e-38 313 263
-0.0074691991 0.70999998 -0.028631933 1.2312421e-38 314 263
-0.0062067998 0.708 -0.02855128 1.2220225e-38 315 263
-0.0049654399 0.708 -0.02855128 1.2220941e-38 316 263
-0.00372408 0.708 -0.02855128 1.2313137e-38 317 263
-0.00248272 0.708 -0.02855128 1.231349e-38 318 263
-0.00124136 0.708 -0.02855128 1.2405685e-38 319 263
0 0.708 -0.02855128 1.213018e-38 320 263
0.0012448666 0.70999998 -0.028631933 1.2037626e-38 321 263
0.0024897333 0.70999998 -0.028631933 1.2037276e-38 322 263
0.0037345996 0.70999998 -0.028631933 1.2129471e-38 323 263
0.0049864799 0.71100003 -0.028672259 1.2130546e-38 324 263
0.0062330998 0.71100003 -0.028672259 1.2038351e-38 325 263
0.0074797203 0.71100003 -0.028672259 1.2038351e-38 326 263
0.0087508867 0.713 -0.028752912 1.2130546e-38 327 263
0.010001013 0.713 -0.028752912 1.167137e-38 328 263
0.011266919 0.71399999 -0.028793238 1.1855401e-38 329 263
0.012553867 0.71600002 -0.028873893 1.1671733e-38 330 263
0.013809253 0.71600002 -0.028873893 1.1579537e-38 331 263
0.015085679 0.71700001 -0.028914221 1.1487345e-38 332 263
0.016342819 0.71700001 -0.028914221 1.0934171e-38 333 263
0.017649053 0.71899998 -0.028994869 1.2050596e-38 334 263
0.018909698 0.71899998 -0.028994869 1.638379e-38 335 263
-0.041182294 0.73400003 -0.030886721 1.7323755e-38 288 264
-0.039895348 0.73400003 -0.030886721 1.7231558e-38 289 264
-0.038555797 0.73299998 -0.030844638 1.5196046e-38 290 264
-0.037168913 0.73100001 -0.03076048 1.1600417e-38 291 264
-0.035887226 0.73100001 -0.03076048 1.3240841e-38 292 264
-0.034463517 0.72799999 -0.030634239 1.2687667e-38 293 264
-0.033050332 0.72500002 -0.030508002 1.2501107e-38 294 264
-0.031691495 0.72299999 -0.030423839 1.2040495e-38 295 264
-0.030423839 0.72299999 -0.030423839 1.2222373e-38 296 264
-0.029115854 0.722 -0.030381758 1.2037983e-38 297 264
-0.027772799 0.72000003 -0.0302976 1.1944358e-38 298 264
-0.026510401 0.72000003 -0.0302976 1.1852161e-38 299 264
-0.025212931 0.71899998 -0.030255521 1.2128029e-38 300 264
-0.02388566 0.71700001 -0.030171359 1.2404616e-38 301 264
-0.022596961 0.71600002 -0.03012928 1.2222391e-38 302 264
-0.021341572 0.71600002 -0.03012928 1.2406784e-38 303 264
-0.020086186 0.71600002 -0.03012928 1.25008e-38 304 264
-0.0188308 0.71600002 -0.03012928 1.3422396e-38 305 264
-0.017526319 0.71399999 -0.030045118 1.2967189e-38 306 264
-0.016251646 0.713 -0.030003037 1.3612558e-38 307 264
-0.015001519 0.713 -0.030003037 1.3339931e-38 308 264
-0.01371282 0.71100003 -0.029918881 1.3893105e-38 309 264
-0.0124662 0.71100003 -0.029918881 1.4081437e-38 310 264
-0.011203799 0.70999998 -0.029876797 1.2975089e-38 311 264
-0.0099589331 0.70999998 -0.029876797 1.2967514e-38 312 264
-0.0087140659 0.70999998 -0.029876797 1.1307992e-38 313 264
-0.0074691991 0.70999998 -0.029876797 1.2406057e-38 314 264
-0.0062067998 0.708 -0.02979264 1.2037276e-38 315 264
-0.0049654399 0.708 -0.02979264 1.2128745e-38 316 264
-0.00372408 0.708 -0.02979264 1.2128745e-38 317 264
-0.00248272 0.708 -0.02979264 1.194543e-38 318 264
-0.00124136 0.708 -0.02979264 1.2037626e-38 319 264
0 0.708 -0.02979264 1.1945796e-38 320 264
0.00124136 0.708 -0.02979264 1.1761765e-38 321 264
0.0024897333 0.70999998 -0.029876797 1.1852884e-38 322 264
0.0037345996 0.70999998 -0.029876797 1.2037276e-38 323 264
0.0049794666 0.70999998 -0.029876797 1.185468e-38 324 264
0.0062330998 0.71100003 -0.029918881 1.185468e-38 325 264
0.0074797203 0.71100003 -0.029918881 1.1945796e-38 326 264
0.0087263398 0.71100003 -0.029918881 1.2038351e-38 327 264
0.010001013 0.713 -0.030003037 1.1854685e-38 328 264
0.011266919 0.71399999 -0.030045118 1.1762131e-38 329 264
0.012518799 0.71399999 -0.030045118 1.1304029e-38 330 264
0.013809253 0.71600002 -0.03012928 1.1304029e-38 331 264
0.015085679 0.71700001 -0.030171359 1.1212197e-38 332 264
0.016342819 0.71700001 -0.030171359 1.0843773e-38 333 264
0.017599959 0.71700001 -0.030171359 1.1680019e-38 334 264
0.018857099 0.71700001 -0.030171359 1.6013212e-38 335 264
-0.039895348 0.73400003 -0.032173667 1.7047894e-38 289 265
-0.038555797 0.73299998 -0.032129832 1.5288965e-38 290 265
-0.037168913 0.73100001 -0.032042164 1.1693694e-38 291 265
-0.035838135 0.73000002 -0.031998333 1.2873147e-38 292 265
-0.03441618 0.727 -0.03186683 1.2504724e-38 293 265
-0.033050332 0.72500002 -0.031779166 1.2503276e-38 294 265
-0.031691495 0.72299999 -0.031691495 1.1950102e-38 295 265
-0.030423839 0.72299999 -0.031691495 1.2223814e-38 296 265
-0.029115854 0.722 -0.031647664 1.1947228e-38 297 265
-0.027849946 0.722 -0.031647664 1.2037629e-38 298 265
-0.026510401 0.72000003 -0.03156 1.1945433e-38 299 265
-0.025212931 0.71899998 -0.031516165 1.2128745e-38 300 265
-0.023952285 0.71899998 -0.031516165 1.2220941e-38 301 265
-0.022596961 0.71600002 -0.031384666 1.2129474e-38 302 265
-0.021341572 0.71600002 -0.031384666 1.222167e-38 303 265
-0.020086186 0.71600002 -0.031384666 1.2589749e-38 304 265
-0.0188308 0.71600002 -0.031384666 1.3235118e-38 305 265
-0.017526319 0.71399999 -0.031296998 1.2961785e-38 306 265
-0.016251646 0.713 -0.031253166 1.3423122e-38 307 265
-0.015001519 0.713 -0.031253166 1.2875709e-38 308 265
-0.01371282 0.71100003 -0.031165501 1.3613274e-38 309 265
-0.0124662 0.71100003 -0.031165501 1.3525029e-38 310 265
-0.011203799 0.70999998 -0.031121666 1.2787464e-38 311 265
-0.0099589331 0.70999998 -0.031121666 1.2873892e-38 312 265
-0.0087140659 0.70999998 -0.031121666 1.2044131e-38 313 265
-0.0074691991 0.70999998 -0.031121666 1.2221673e-38 314 265
-0.0062243328 0.70999998 -0.031121666 1.2036923e-38 315 265
-0.0049654399 0.708 -0.031034 1.1852161e-38 316 265
-0.00372408 0.708 -0.031034 1.1944358e-38 317 265
-0.00248272 0.708 -0.031034 1.1853236e-38 318 265
-0.00124136 0.708 -0.031034 1.194543e-38 319 265
0 0.708 -0.031034 1.1853238e-38 320 265
0.00124136 0.708 -0.031034 1.1853238e-38 321 265
0.0024897333 0.70999998 -0.031121666 1.1852882e-38 322 265
0.0037345996 0.70999998 -0.031121666 1.2037632e-38 323 265
0.0049794666 0.70999998 -0.031121666 1.1762484e-38 324 265
0.0062330998 0.71100003 -0.031165501 1.185468e-38 325 265
0.0074797203 0.71100003 -0.031165501 1.1762484e-38 326 265
0.0087263398 0.71100003 -0.031165501 1.1762484e-38 327 265
0.010001013 0.713 -0.031253166 1.1670291e-38 328 265
0.011266919 0.71399999 -0.031296998 1.1670291e-38 329 265
0.012518799 0.71399999 -0.031296998 1.148662e-38 330 265
0.013809253 0.71600002 -0.031384666 1.148662e-38 331 265
0.01506464 0.71600002 -0.031384666 1.1304029e-38 332 265
0.016342819 0.71700001 -0.031428497 1.1304029e-38 333 265
0.017599959 0.71700001 -0.031428497 1.1494905e-38 334 265
0.018857099 0.71700001 -0.031428497 1.5643706e-38 335 265
-0.037118066 0.73000002 -0.033278264 1.1696212e-38 291 266
-0.035838135 0.73000002 -0.033278264 1.2874598e-38 292 266
-0.034321502 0.72500002 -0.033050332 1.2413621e-38 293 266
-0.033050332 0.72500002 -0.033050332 1.2778787e-38 294 266
-0.031691495 0.72299999 -0.032959159 1.2410004e-38 295 266
-0.030423839 0.72299999 -0.032959159 1.259115e-38 296 266
-0.029115854 0.722 -0.032913569 1.2222731e-38 297 266
-0.027849946 0.722 -0.032913569 1.2221296e-38 298 266
-0.026510401 0.72000003 -0.0328224 1.2129101e-38 299 266
-0.025212931 0.71899998 -0.032776814 1.2220941e-38 300 266
-0.02388566 0.71700001 -0.032685637 1.2128745e-38 301 266
-0.022596961 0.71600002 -0.032640055 1.2219875e-38 302 266
-0.021341572 0.71600002 -0.032640055 1.2404266e-38 303 266
-0.020086186 0.71600002 -0.032640055 1.2221336e-38 304 266
-0.0188308 0.71600002 -0.032640055 1.2682313e-38 305 266
-0.017526319 0.71399999 -0.032548878 1.2501163e-38 306 266
-0.016251646 0.713 -0.032503292 1.2685554e-38 307 266
-0.014959441 0.71100003 -0.032412119 1.2688781e-38 308 266
-0.01371282 0.71100003 -0.032412119 1.3241955e-38 309 266
-0.0124662 0.71100003 -0.032412119 1.3244472e-38 310 266
-0.011203799 0.70999998 -0.032366529 1.2783495e-38 311 266
-0.0099589331 0.70999998 -0.032366529 1.2596216e-38 312 266
-0.0087140659 0.70999998 -0.032366529 1.1766096e-38 313 266
-0.0074691991 0.70999998 -0.032366529 1.222167e-38 314 266
-0.0062243328 0.70999998 -0.032366529 1.1852529e-38 315 266
-0.0049654399 0.708 -0.03227536 1.1852164e-38 316 266
-0.00372408 0.708 -0.03227536 1.1852164e-38 317 266
-0.00248272 0.708 -0.03227536 1.1576654e-38 318 266
-0.00124136 0.708 -0.03227536 1.1484459e-38 319 266
0 0.708 -0.03227536 1.1576656e-38 320 266
0.00124136 0.708 -0.03227536 1.1760687e-38 321 266
0.0024897333 0.70999998 -0.032366529 1.157774e-38 322 266
0.0037345996 0.70999998 -0.032366529 1.1762131e-38 323 266
