# .PCD v.7 - Point Cloud Data file format
FIELDS x y z rgb imX imY
SIZE 4 4 4 4 4 4
TYPE F F F F F F
COUNT 1 1 1 1 1 1
WIDTH 835
HEIGHT 1
VIEWPOINT 0 0 0 1 0 0 0
POINTS 835
DATA ascii
-0.012606465 0.71899998 -0.01134582 1.2956708e-38 310 249
-0.01134582 0.71899998 -0.01134582 1.3141458e-38 311 249
-0.01005712 0.71700001 -0.01131426 1.3143606e-38 312 249
-0.0087999795 0.71700001 -0.01131426 1.3419835e-38 313 249
-0.0075638802 0.71899998 -0.01134582 1.3512386e-38 314 249
-0.0063032326 0.71899998 -0.01134582 1.3235799e-38 315 249
-0.0050496003 0.72000003 -0.011361601 1.3142903e-38 316 249
-0.0037872 0.72000003 -0.011361601 1.3050707e-38 317 249
-0.0025248001 0.72000003 -0.011361601 1.2774862e-38 318 249
-0.0012624001 0.72000003 -0.011361601 1.2867057e-38 319 249
0 0.722 -0.01139316 1.2500447e-38 320 249
0.0012659066 0.722 -0.01139316 1.2684478e-38 321 249
0.0025318132 0.722 -0.01139316 1.2410412e-38 322 249
0.0037977197 0.722 -0.01139316 1.2963586e-38 323 249
0.0050636264 0.722 -0.01139316 1.2506201e-38 324 249
0.0063295332 0.722 -0.01139316 1.2506201e-38 325 249
-0.034700219 0.73299998 -0.012851933 1.1326369e-38 293 250
-0.033323854 0.73100001 -0.012816866 1.3244469e-38 294 250
-0.031998333 0.73000002 -0.012799333 1.3521416e-38 295 250
-0.030634239 0.72799999 -0.012764266 1.39777e-38 296 250
-0.029357811 0.72799999 -0.012764266 1.3608916e-38 297 250
-0.028081384 0.72799999 -0.012764266 1.3789342e-38 298 250
-0.026768139 0.727 -0.012746733 1.342056e-38 299 250
-0.025353199 0.72299999 -0.012676599 1.3326922e-38 300 250
-0.024052227 0.722 -0.012659066 1.3234367e-38 301 250
-0.022786319 0.722 -0.012659066 1.3141809e-38 302 250
-0.021520413 0.722 -0.012659066 1.3049613e-38 303 250
-0.020282559 0.72299999 -0.012676599 1.3048537e-38 304 250
-0.0189886 0.722 -0.012659066 1.2864146e-38 305 250
-0.017722692 0.722 -0.012659066 1.2955625e-38 306 250
-0.0164112 0.72000003 -0.012624 1.3231852e-38 307 250
-0.01512776 0.71899998 -0.012606465 1.3048537e-38 308 250
-0.013867113 0.71899998 -0.012606465 1.3140734e-38 309 250
-0.012606465 0.71899998 -0.012606465 1.3141809e-38 310 250
-0.01131426 0.71700001 -0.0125714 1.3234004e-38 311 250
-0.01005712 0.71700001 -0.0125714 1.3235799e-38 312 250
-0.0087999795 0.71700001 -0.0125714 1.3420191e-38 313 250
-0.0075428397 0.71700001 -0.0125714 1.3420191e-38 314 250
-0.0062857 0.71700001 -0.0125714 1.3143604e-38 315 250
-0.0050425865 0.71899998 -0.012606465 1.2958506e-38 316 250
-0.0037819401 0.71899998 -0.012606465 1.2866311e-38 317 250
-0.0025212932 0.71899998 -0.012606465 1.2682292e-38 318 250
-0.0012606466 0.71899998 -0.012606465 1.2682292e-38 319 250
0 0.72000003 -0.012624 1.2223484e-38 320 250
0.0012624001 0.72000003 -0.012624 1.250007e-38 321 250
0.0025318132 0.722 -0.012659066 1.2133455e-38 322 250
0.0037977197 0.722 -0.012659066 1.2410402e-38 323 250
0.0050636264 0.722 -0.012659066 1.2411487e-38 324 250
0.0063295332 0.722 -0.012659066 1.259588e-38 325 250
0.0076059597 0.72299999 -0.012676599 1.2321816e-38 326 250
0.0088736191 0.72299999 -0.012676599 1.2505848e-38 327 250
-0.035985414 0.73299998 -0.014137126 1.2699947e-38 292 251
-0.034700219 0.73299998 -0.014137126 1.1501404e-38 293 251
-0.033278264 0.73000002 -0.014079267 1.3889473e-38 294 251
-0.031998333 0.73000002 -0.014079267 1.41657e-38 295 251
-0.030634239 0.72799999 -0.014040692 1.3980937e-38 296 251
-0.029317487 0.727 -0.014021406 1.3428122e-38 297 251
-0.027965667 0.72500002 -0.013982833 1.360675e-38 298 251
-0.026694499 0.72500002 -0.013982833 1.3145771e-38 299 251
-0.025318133 0.722 -0.013924973 1.3419117e-38 300 251
-0.0239856 0.72000003 -0.0138864 1.3419117e-38 301 251
-0.022723202 0.72000003 -0.0138864 1.3050689e-38 302 251
-0.021520413 0.722 -0.013924973 1.2958494e-38 303 251
-0.020254506 0.722 -0.013924973 1.314109e-38 304 251
-0.018935999 0.72000003 -0.0138864 1.3048893e-38 305 251
-0.017649053 0.71899998 -0.013867113 1.314109e-38 306 251
-0.016388407 0.71899998 -0.013867113 1.314109e-38 307 251
-0.01512776 0.71899998 -0.013867113 1.3234001e-38 308 251
-0.013828539 0.71700001 -0.013828539 1.3326197e-38 309 251
-0.0125714 0.71700001 -0.013828539 1.3143957e-38 310 251
-0.01131426 0.71700001 -0.013828539 1.3420185e-38 311 251
-0.01005712 0.71700001 -0.013828539 1.3237229e-38 312 251
-0.0087999795 0.71700001 -0.013828539 1.342162e-38 313 251
-0.0075428397 0.71700001 -0.013828539 1.3419467e-38 314 251
-0.0062857 0.71700001 -0.013828539 1.3235076e-38 315 251
-0.0050285598 0.71700001 -0.013828539 1.2958143e-38 316 251
-0.0037714199 0.71700001 -0.013828539 1.2865948e-38 317 251
-0.0025142799 0.71700001 -0.013828539 1.259045e-38 318 251
-0.0012606466 0.71899998 -0.013867113 1.2682645e-38 319 251
0 0.71899998 -0.013867113 1.2223835e-38 320 251
0.0012624001 0.72000003 -0.0138864 1.2316389e-38 321 251
0.0025248001 0.72000003 -0.0138864 1.204161e-38 322 251
0.0037977197 0.722 -0.013924973 1.2226003e-38 323 251
0.0050636264 0.722 -0.013924973 1.2134529e-38 324 251
0.0063295332 0.722 -0.013924973 1.231892e-38 325 251
0.0076059597 0.72299999 -0.01394426 1.2503317e-38 326 251
0.0088736191 0.72299999 -0.01394426 1.2595512e-38 327 251
0.010127253 0.722 -0.013924973 1.1590732e-38 328 251
0.01139316 0.722 -0.013924973 1.3619036e-38 329 251
-0.037168913 0.73100001 -0.01538024 1.391289e-38 291 252
-0.035887226 0.73100001 -0.01538024 1.2140292e-38 292 252
-0.034558199 0.73000002 -0.0153592 1.2508716e-38 293 252
-0.033187091 0.72799999 -0.01531712 1.3985256e-38 294 252
-0.031910665 0.72799999 -0.01531712 1.3985256e-38 295 252
-0.030592158 0.727 -0.015296079 1.4075637e-38 296 252
-0.029236834 0.72500002 -0.015254001 1.3245876e-38 297 252
-0.02788852 0.72299999 -0.015211919 1.3790775e-38 298 252
-0.026620859 0.72299999 -0.015211919 1.305321e-38 299 252
-0.025248 0.72000003 -0.0151488 1.3420191e-38 300 252
-0.0239856 0.72000003 -0.0151488 1.3235799e-38 301 252
-0.022723202 0.72000003 -0.0151488 1.3235073e-38 302 252
-0.021460801 0.72000003 -0.0151488 1.3051044e-38 303 252
-0.020198401 0.72000003 -0.0151488 1.3234356e-38 304 252
-0.018909698 0.71899998 -0.01512776 1.3142162e-38 305 252
-0.017649053 0.71899998 -0.01512776 1.3234001e-38 306 252
-0.016388407 0.71899998 -0.01512776 1.3234001e-38 307 252
-0.015085679 0.71700001 -0.015085679 1.314396e-38 308 252
-0.013828539 0.71700001 -0.015085679 1.3236155e-38 309 252
-0.0125714 0.71700001 -0.015085679 1.3513091e-38 310 252
-0.01129848 0.71600002 -0.01506464 1.3605285e-38 311 252
-0.010043093 0.71600002 -0.01506464 1.3421973e-38 312 252
-0.0087877065 0.71600002 -0.01506464 1.332942e-38 313 252
-0.00753232 0.71600002 -0.01506464 1.3511662e-38 314 252
-0.0062769335 0.71600002 -0.01506464 1.3235073e-38 315 252
-0.0050215465 0.71600002 -0.01506464 1.3141806e-38 316 252
-0.0037714199 0.71700001 -0.015085679 1.304961e-38 317 252
-0.0025142799 0.71700001 -0.015085679 1.2590084e-38 318 252
-0.00125714 0.71700001 -0.015085679 1.2590084e-38 319 252
0 0.71700001 -0.015085679 1.2223835e-38 320 252
0.0012606466 0.71899998 -0.01512776 1.2316389e-38 321 252
0.0025212932 0.71899998 -0.01512776 1.1950846e-38 322 252
0.0037872 0.72000003 -0.0151488 1.2134879e-38 323 252
0.0050496003 0.72000003 -0.0151488 1.1951211e-38 324 252
0.0063295332 0.722 -0.015190879 1.1859014e-38 325 252
0.0075954394 0.722 -0.015190879 1.2135257e-38 326 252
0.0088613462 0.722 -0.015190879 1.2227453e-38 327 252
0.010127253 0.722 -0.015190879 1.1400579e-38 328 252
0.01139316 0.722 -0.015190879 1.1400579e-38 329 252
0.012676599 0.72299999 -0.015211919 1.1878118e-38 330 252
-0.038555797 0.73299998 -0.016707512 1.5570606e-38 290 253
-0.037270606 0.73299998 -0.016707512 1.1329966e-38 291 253
-0.035838135 0.73000002 -0.016639132 1.1955901e-38 292 253
-0.034558199 0.73000002 -0.016639132 1.3431031e-38 293 253
-0.033187091 0.72799999 -0.016593546 1.4077104e-38 294 253
-0.031910665 0.72799999 -0.016593546 1.4538082e-38 295 253
-0.030592158 0.727 -0.016570752 1.4262571e-38 296 253
-0.029156178 0.72299999 -0.01647958 1.2787081e-38 297 253
-0.027849946 0.722 -0.016456785 1.369644e-38 298 253
-0.026584039 0.722 -0.016456785 1.3512409e-38 299 253
-0.025248 0.72000003 -0.0164112 1.3326568e-38 300 253
-0.023952285 0.71899998 -0.016388407 1.3234373e-38 301 253
-0.022691639 0.71899998 -0.016388407 1.3050336e-38 302 253
-0.021430992 0.71899998 -0.016388407 1.3050336e-38 303 253
-0.020170346 0.71899998 -0.016388407 1.3050692e-38 304 253
-0.018909698 0.71899998 -0.016388407 1.3050692e-38 305 253
-0.017599959 0.71700001 -0.016342819 1.323472e-38 306 253
-0.016342819 0.71700001 -0.016342819 1.3050689e-38 307 253
-0.015085679 0.71700001 -0.016342819 1.3235076e-38 308 253
-0.013809253 0.71600002 -0.016320027 1.3327272e-38 309 253
-0.012553867 0.71600002 -0.016320027 1.3420541e-38 310 253
-0.01129848 0.71600002 -0.016320027 1.3512737e-38 311 253
-0.010043093 0.71600002 -0.016320027 1.3512737e-38 312 253
-0.0087877065 0.71600002 -0.016320027 1.3420541e-38 313 253
-0.00753232 0.71600002 -0.016320027 1.3236152e-38 314 253
-0.0062769335 0.71600002 -0.016320027 1.3143957e-38 315 253
-0.0050215465 0.71600002 -0.016320027 1.2958494e-38 316 253
-0.00376616 0.71600002 -0.016320027 1.2774102e-38 317 253
-0.0025107733 0.71600002 -0.016320027 1.259008e-38 318 253
-0.00125714 0.71700001 -0.016342819 1.2497884e-38 319 253
0 0.71700001 -0.016342819 1.2223106e-38 320 253
0.00125714 0.71700001 -0.016342819 1.2500052e-38 321 253
0.0025142799 0.71700001 -0.016342819 1.1858645e-38 322 253
0.0037714199 0.71700001 -0.016342819 1.2227428e-38 323 253
0.0050285598 0.71700001 -0.016342819 1.1861522e-38 324 253
0.0063120001 0.72000003 -0.0164112 1.1768968e-38 325 253
0.0075954394 0.722 -0.016456785 1.2134879e-38 326 253
0.0088613462 0.722 -0.016456785 1.2227075e-38 327 253
0.01014128 0.72299999 -0.01647958 1.2226724e-38 328 253
0.01140894 0.72299999 -0.01647958 1.1950496e-38 329 253
0.012624 0.72000003 -0.0164112 1.0943564e-38 330 253
0.0138864 0.72000003 -0.0164112 1.4355161e-38 331 253
-0.037270606 0.73299998 -0.017992707 9.5746562e-39 291 254
-0.035838135 0.73000002 -0.017919067 1.2415437e-38 292 254
-0.034558199 0.73000002 -0.017919067 1.40746e-38 293 254
-0.033187091 0.72799999 -0.017869972 1.3987073e-38 294 254
-0.03186683 0.727 -0.017845426 1.3987073e-38 295 254
-0.030508002 0.72500002 -0.017796334 1.4076754e-38 296 254
-0.029156178 0.72299999 -0.017747238 1.2693819e-38 297 254
-0.027849946 0.722 -0.017722692 1.3330901e-38 298 254
-0.026510401 0.72000003 -0.017673599 1.2777727e-38 299 254
-0.025248 0.72000003 -0.017673599 1.3143975e-38 300 254
-0.023952285 0.71899998 -0.017649053 1.2775194e-38 301 254
-0.022691639 0.71899998 -0.017649053 1.3050339e-38 302 254
-0.021430992 0.71899998 -0.017649053 1.3050339e-38 303 254
-0.020170346 0.71899998 -0.017649053 1.2958859e-38 304 254
-0.018857099 0.71700001 -0.017599959 1.2958859e-38 305 254
-0.017599959 0.71700001 -0.017599959 1.2866661e-38 306 254
-0.016342819 0.71700001 -0.017599959 1.2866661e-38 307 254
-0.01506464 0.71600002 -0.017575413 1.295706e-38 308 254
-0.013809253 0.71600002 -0.017575413 1.3141453e-38 309 254
-0.012553867 0.71600002 -0.017575413 1.3234367e-38 310 254
-0.01129848 0.71600002 -0.017575413 1.3326922e-38 311 254
-0.010043093 0.71600002 -0.017575413 1.323472e-38 312 254
-0.0087631596 0.71399999 -0.017526319 1.3326916e-38 313 254
-0.0075112795 0.71399999 -0.017526319 1.3143955e-38 314 254
-0.0062593995 0.71399999 -0.017526319 1.3051761e-38 315 254
-0.0050075199 0.71399999 -0.017526319 1.3234356e-38 316 254
-0.0037556398 0.71399999 -0.017526319 1.2773385e-38 317 254
-0.0025107733 0.71600002 -0.017575413 1.2773026e-38 318 254
-0.0012553866 0.71600002 -0.017575413 1.2773026e-38 319 254
0 0.71600002 -0.017575413 1.2314939e-38 320 254
0.0012553866 0.71600002 -0.017575413 1.249933e-38 321 254
0.0025107733 0.71600002 -0.017575413 1.2042316e-38 322 254
0.0037714199 0.71700001 -0.017599959 1.2318904e-38 323 254
0.0050285598 0.71700001 -0.017599959 1.2044115e-38 324 254
0.0062857 0.71700001 -0.017599959 1.2136311e-38 325 254
0.0075954394 0.722 -0.017722692 1.2044478e-38 326 254
0.0088613462 0.722 -0.017722692 1.2044478e-38 327 254
0.01014128 0.72299999 -0.017747238 1.1860819e-38 328 254
0.01140894 0.72299999 -0.017747238 1.1768264e-38 329 254
0.012624 0.72000003 -0.017673599 1.0754841e-38 330 254
0.0138864 0.72000003 -0.017673599 1.1676797e-38 331 254
0.0151488 0.72000003 -0.017673599 1.4094756e-38 332 254
-0.038555797 0.73299998 -0.019277899 1.3351437e-38 290 255
-0.037270606 0.73299998 -0.019277899 8.5569044e-39 291 255
-0.035887226 0.73100001 -0.019225299 1.2690229e-38 292 255
-0.034558199 0.73000002 -0.019199001 1.3888413e-38 293 255
-0.033187091 0.72799999 -0.0191464 1.4078197e-38 294 255
-0.03186683 0.727 -0.019120099 1.3893804e-38 295 255
-0.030508002 0.72500002 -0.0190675 1.3429583e-38 296 255
-0.029156178 0.72299999 -0.019014901 1.2415432e-38 297 255
-0.027849946 0.722 -0.0189886 1.3054673e-38 298 255
-0.026510401 0.72000003 -0.018935999 1.2869923e-38 299 255
-0.025248 0.72000003 -0.018935999 1.3051421e-38 300 255
-0.023952285 0.71899998 -0.018909698 1.3051421e-38 301 255
-0.022691639 0.71899998 -0.018909698 1.3050336e-38 302 255
-0.021430992 0.71899998 -0.018909698 1.3050336e-38 303 255
-0.020114239 0.71700001 -0.018857099 1.3141453e-38 304 255
-0.018857099 0.71700001 -0.018857099 1.3141453e-38 305 255
-0.017599959 0.71700001 -0.018857099 1.2865945e-38 306 255
-0.016342819 0.71700001 -0.018857099 1.2681552e-38 307 255
-0.01506464 0.71600002 -0.0188308 1.2863427e-38 308 255
-0.013809253 0.71600002 -0.0188308 1.2955622e-38 309 255
-0.012553867 0.71600002 -0.0188308 1.2864146e-38 310 255
-0.011266919 0.71399999 -0.018778199 1.2864146e-38 311 255
-0.01001504 0.71399999 -0.018778199 1.3048893e-38 312 255
-0.0087631596 0.71399999 -0.018778199 1.3048893e-38 313 255
-0.0075112795 0.71399999 -0.018778199 1.3051408e-38 314 255
-0.0062506334 0.713 -0.018751899 1.3051408e-38 315 255
-0.0050005065 0.713 -0.018751899 1.3051405e-38 316 255
-0.0037503797 0.713 -0.018751899 1.2867014e-38 317 255
-0.0025037599 0.71399999 -0.018778199 1.2866298e-38 318 255
-0.00125188 0.71399999 -0.018778199 1.2681549e-38 319 255
0 0.71399999 -0.018778199 1.2406051e-38 320 255
0.00125188 0.71399999 -0.018778199 1.2498607e-38 321 255
0.0025107733 0.71600002 -0.0188308 1.2131639e-38 322 255
0.00376616 0.71600002 -0.0188308 1.2316389e-38 323 255
0.0050215465 0.71600002 -0.0188308 1.2134156e-38 324 255
0.0062769335 0.71600002 -0.0188308 1.2318907e-38 325 255
0.0075428397 0.71700001 -0.018857099 1.2044834e-38 326 255
0.0088613462 0.722 -0.0189886 1.213703e-38 327 255
0.010127253 0.722 -0.0189886 1.1953362e-38 328 255
0.01139316 0.722 -0.0189886 1.2045557e-38 329 255
0.012624 0.72000003 -0.018935999 1.1306566e-38 330 255
0.0138864 0.72000003 -0.018935999 1.0845588e-38 331 255
0.0151488 0.72000003 -0.018935999 1.2245811e-38 332 255
-0.038555797 0.73299998 -0.020563092 1.2703903e-38 290 256
-0.037270606 0.73299998 -0.020563092 7.8171743e-39 291 256
-0.035887226 0.73100001 -0.020506985 1.2871741e-38 292 256
-0.034558199 0.73000002 -0.020478934 1.3609306e-38 293 256
-0.033187091 0.72799999 -0.020422826 1.3338117e-38 294 256
-0.03186683 0.727 -0.020394772 1.2784943e-38 295 256
-0.030508002 0.72500002 -0.020338668 1.3239797e-38 296 256
-0.029156178 0.72299999 -0.020282559 1.2779178e-38 297 256
-0.027849946 0.722 -0.020254506 1.286956e-38 298 256
-0.026510401 0.72000003 -0.020198401 1.268481e-38 299 256
-0.025248 0.72000003 -0.020198401 1.3051421e-38 300 256
-0.023952285 0.71899998 -0.020170346 1.286739e-38 301 256
-0.02262852 0.71700001 -0.020114239 1.2867745e-38 302 256
-0.021371379 0.71700001 -0.020114239 1.2867745e-38 303 256
-0.020114239 0.71700001 -0.020114239 1.2958862e-38 304 256
-0.018857099 0.71700001 -0.020114239 1.2866666e-38 305 256
-0.017599959 0.71700001 -0.020114239 1.2773392e-38 306 256
-0.016320027 0.71600002 -0.020086186 1.2681196e-38 307 256
-0.01506464 0.71600002 -0.020086186 1.2771594e-38 308 256
-0.013809253 0.71600002 -0.020086186 1.2587563e-38 309 256
-0.012518799 0.71399999 -0.020030079 1.2587563e-38 310 256
-0.011266919 0.71399999 -0.020030079 1.2587563e-38 311 256
-0.01001504 0.71399999 -0.020030079 1.2680832e-38 312 256
-0.0087508867 0.713 -0.020002026 1.2680832e-38 313 256
-0.0075007593 0.713 -0.020002026 1.2775897e-38 314 256
-0.0062330998 0.71100003 -0.01994592 1.3052124e-38 315 256
-0.0049864799 0.71100003 -0.01994592 1.3144673e-38 316 256
-0.0037398601 0.71100003 -0.01994592 1.2868449e-38 317 256
-0.0024932399 0.71100003 -0.01994592 1.2959567e-38 318 256
-0.0012501266 0.713 -0.020002026 1.259079e-38 319 256
0 0.713 -0.020002026 1.2406404e-38 320 256
0.00124662 0.71100003 -0.01994592 1.2406404e-38 321 256
0.0024932399 0.71100003 -0.01994592 1.2222389e-38 322 256
0.00376616 0.71600002 -0.020086186 1.2499336e-38 323 256
0.0050215465 0.71600002 -0.020086186 1.2316386e-38 324 256
0.0062769335 0.71600002 -0.020086186 1.2500417e-38 325 256
0.0075428397 0.71700001 -0.020114239 1.2317824e-38 326 256
0.0088245263 0.71899998 -0.020170346 1.2502217e-38 327 256
0.010099201 0.72000003 -0.020198401 1.2136674e-38 328 256
0.01139316 0.722 -0.020254506 1.2136674e-38 329 256
0.012659066 0.722 -0.020254506 1.1676425e-38 330 256
0.013924973 0.722 -0.020254506 1.0754468e-38 331 256
0.015190879 0.722 -0.020254506 1.0854239e-38 332 256
0.016456785 0.722 -0.020254506 1.5740966e-38 333 256
-0.039840993 0.73299998 -0.021848286 1.6218132e-38 289 257
-0.038555797 0.73299998 -0.021848286 1.2793571e-38 290 257
-0.037270606 0.73299998 -0.021848286 8.4603773e-39 291 257
-0.035887226 0.73100001 -0.021788673 1.2595137e-38 292 257
-0.034558199 0.73000002 -0.021758866 1.2871725e-38 293 257
-0.033187091 0.72799999 -0.021699252 1.2871728e-38 294 257
-0.03186683 0.727 -0.021669446 1.2594781e-38 295 257
-0.030508002 0.72500002 -0.021609833 1.268446e-38 296 257
-0.029156178 0.72299999 -0.021550218 1.2592263e-38 297 257
-0.027849946 0.722 -0.021520413 1.2775209e-38 298 257
-0.026510401 0.72000003 -0.021460801 1.2775209e-38 299 257
-0.025212931 0.71899998 -0.021430992 1.286739e-38 300 257
-0.023952285 0.71899998 -0.021430992 1.3051421e-38 301 257
-0.02262852 0.71700001 -0.021371379 1.2867743e-38 302 257
-0.021371379 0.71700001 -0.021371379 1.3051774e-38 303 257
-0.020114239 0.71700001 -0.021371379 1.2958859e-38 304 257
-0.018857099 0.71700001 -0.021371379 1.2958859e-38 305 257
-0.017575413 0.71600002 -0.021341572 1.2866661e-38 306 257
-0.016320027 0.71600002 -0.021341572 1.2590433e-38 307 257
-0.01506464 0.71600002 -0.021341572 1.2680832e-38 308 257
-0.01377068 0.71399999 -0.021281958 1.2496443e-38 309 257
-0.012518799 0.71399999 -0.021281958 1.2587203e-38 310 257
-0.011251139 0.713 -0.021252153 1.2679397e-38 311 257
-0.010001013 0.713 -0.021252153 1.258792e-38 312 257
-0.0087508867 0.713 -0.021252153 1.2864503e-38 313 257
-0.0075007593 0.713 -0.021252153 1.2500389e-38 314 257
-0.0062330998 0.71100003 -0.021192541 1.2868812e-38 315 257
-0.0049864799 0.71100003 -0.021192541 1.2962081e-38 316 257
-0.0037398601 0.71100003 -0.021192541 1.2869884e-38 317 257
-0.0024932399 0.71100003 -0.021192541 1.2868449e-38 318 257
-0.00124662 0.71100003 -0.021192541 1.2591866e-38 319 257
0 0.713 -0.021252153 1.2498237e-38 320 257
0.00124662 0.71100003 -0.021192541 1.2498237e-38 321 257
0.0024932399 0.71100003 -0.021192541 1.2406051e-38 322 257
0.0037556398 0.71399999 -0.021281958 1.2590803e-38 323 257
0.0050215465 0.71600002 -0.021341572 1.2131989e-38 324 257
0.0062769335 0.71600002 -0.021341572 1.2131989e-38 325 257
0.0075428397 0.71700001 -0.021371379 1.2316389e-38 326 257
0.0088245263 0.71899998 -0.021430992 1.250042e-38 327 257
0.010099201 0.72000003 -0.021460801 1.2134879e-38 328 257
0.011361601 0.72000003 -0.021460801 1.2227075e-38 329 257
0.012659066 0.722 -0.021520413 1.1953365e-38 330 257
0.013924973 0.722 -0.021520413 1.1676419e-38 331 257
0.015190879 0.722 -0.021520413 1.0108751e-38 332 257
0.01647958 0.72299999 -0.021550218 1.4257196e-38 333 257
0.017747238 0.72299999 -0.021550218 1.6495086e-38 334 257
-0.039895348 0.73400003 -0.023165042 1.5665676e-38 289 258
-0.038555797 0.73299998 -0.023133477 1.3344223e-38 290 258
-0.037168913 0.73100001 -0.02307036 9.2879758e-39 291 258
-0.035887226 0.73100001 -0.02307036 1.24111e-38 292 258
-0.034558199 0.73000002 -0.023038799 1.2318904e-38 293 258
-0.033187091 0.72799999 -0.022975679 1.2959958e-38 294 258
-0.03186683 0.727 -0.022944121 1.2683011e-38 295 258
-0.030508002 0.72500002 -0.022880999 1.2773409e-38 296 258
-0.029156178 0.72299999 -0.02281788 1.2589378e-38 297 258
-0.027849946 0.722 -0.022786319 1.2589728e-38 298 258
-0.026510401 0.72000003 -0.022723202 1.2774118e-38 299 258
-0.025212931 0.71899998 -0.022691639 1.2682995e-38 300 258
-0.023952285 0.71899998 -0.022691639 1.2867745e-38 301 258
-0.02262852 0.71700001 -0.02262852 1.2868108e-38 302 258
-0.021371379 0.71700001 -0.02262852 1.2960304e-38 303 258
-0.020114239 0.71700001 -0.02262852 1.2868111e-38 304 258
-0.018857099 0.71700001 -0.02262852 1.2960308e-38 305 258
-0.017575413 0.71600002 -0.022596961 1.2684796e-38 306 258
-0.016320027 0.71600002 -0.022596961 1.2684796e-38 307 258
-0.015022559 0.71399999 -0.022533838 1.2682995e-38 308 258
-0.01377068 0.71399999 -0.022533838 1.2498603e-38 309 258
-0.012501267 0.713 -0.022502279 1.2680477e-38 310 258
-0.011251139 0.713 -0.022502279 1.2496086e-38 311 258
-0.010001013 0.713 -0.022502279 1.2495367e-38 312 258
-0.0087263398 0.71100003 -0.022439159 1.2864146e-38 313 258
-0.0074797203 0.71100003 -0.022439159 1.259115e-38 314 258
-0.0062330998 0.71100003 -0.022439159 1.2868096e-38 315 258
-0.0049864799 0.71100003 -0.022439159 1.3144678e-38 316 258
-0.0037398601 0.71100003 -0.022439159 1.3144678e-38 317 258
-0.0024932399 0.71100003 -0.022439159 1.3052124e-38 318 258
-0.00124662 0.71100003 -0.022439159 1.2683702e-38 319 258
0 0.71100003 -0.022439159 1.259115e-38 320 258
0.00124662 0.71100003 -0.022439159 1.2222731e-38 321 258
0.0024932399 0.71100003 -0.022439159 1.2222373e-38 322 258
0.0037503797 0.713 -0.022502279 1.2406404e-38 323 258
0.0050075199 0.71399999 -0.022533838 1.2223459e-38 324 258
0.0062593995 0.71399999 -0.022533838 1.2223459e-38 325 258
0.00753232 0.71600002 -0.022596961 1.2407137e-38 326 258
0.0087877065 0.71600002 -0.022596961 1.2499333e-38 327 258
0.01005712 0.71700001 -0.02262852 1.213379e-38 328 258
0.01134582 0.71899998 -0.022691639 1.2317821e-38 329 258
0.012624 0.72000003 -0.022723202 1.2135958e-38 330 258
0.013924973 0.722 -0.022786319 1.2043762e-38 331 258
0.015190879 0.722 -0.022786319 9.9221923e-39 332 258
0.016456785 0.722 -0.022786319 1.1950496e-38 333 258
0.017722692 0.722 -0.022786319 1.5295096e-38 334 258
0.0189886 0.722 -0.022786319 1.686278e-38 335 258
-0.039895348 0.73400003 -0.024451986 1.5297252e-38 289 259
-0.038555797 0.73299998 -0.024418673 1.3343149e-38 290 259
-0.037168913 0.73100001 -0.024352046 9.5634879e-39 291 259
-0.035887226 0.73100001 -0.024352046 1.2409301e-38 292 259
-0.034558199 0.73000002 -0.024318734 1.2409301e-38 293 259
-0.033141505 0.727 -0.024218792 1.2314951e-38 294 259
-0.031779166 0.72500002 -0.024152167 1.2038723e-38 295 259
-0.030423839 0.72299999 -0.024085538 1.2312789e-38 296 259
-0.029115854 0.722 -0.024052227 1.2404985e-38 297 259
-0.027849946 0.722 -0.024052227 1.2406057e-38 298 259
-0.026510401 0.72000003 -0.0239856 1.2498254e-38 299 259
-0.025248 0.72000003 -0.0239856 1.2407137e-38 300 259
-0.023952285 0.71899998 -0.023952285 1.2683364e-38 301 259
-0.02262852 0.71700001 -0.02388566 1.277556e-38 302 259
-0.021371379 0.71700001 -0.02388566 1.3052507e-38 303 259
-0.020114239 0.71700001 -0.02388566 1.2870982e-38 304 259
-0.018857099 0.71700001 -0.02388566 1.2963178e-38 305 259
-0.017575413 0.71600002 -0.023852346 1.2873128e-38 306 259
-0.016320027 0.71600002 -0.023852346 1.2688737e-38 307 259
-0.015022559 0.71399999 -0.02378572 1.3054631e-38 308 259
-0.013751393 0.713 -0.023752406 1.2686213e-38 309 259
-0.012501267 0.713 -0.023752406 1.2867373e-38 310 259
-0.011251139 0.713 -0.023752406 1.2498596e-38 311 259
-0.0099729598 0.71100003 -0.023685781 1.2404967e-38 312 259
-0.0087263398 0.71100003 -0.023685781 1.2312772e-38 313 259
-0.0074797203 0.71100003 -0.023685781 1.2590084e-38 314 259
-0.0062330998 0.71100003 -0.023685781 1.2866311e-38 315 259
-0.0049864799 0.71100003 -0.023685781 1.2867745e-38 316 259
-0.0037398601 0.71100003 -0.023685781 1.2867745e-38 317 259
-0.0024932399 0.71100003 -0.023685781 1.2684067e-38 318 259
-0.00124662 0.71100003 -0.023685781 1.2500036e-38 319 259
0 0.71100003 -0.023685781 1.2590431e-38 320 259
0.00124662 0.71100003 -0.023685781 1.2498237e-38 321 259
0.0024932399 0.71100003 -0.023685781 1.2406043e-38 322 259
0.0037398601 0.71100003 -0.023685781 1.2498237e-38 323 259
0.0049864799 0.71100003 -0.023685781 1.2222739e-38 324 259
0.0062330998 0.71100003 -0.023685781 1.2222739e-38 325 259
0.0075112795 0.71399999 -0.02378572 1.2223109e-38 326 259
0.0087631596 0.71399999 -0.02378572 1.2315305e-38 327 259
0.010043093 0.71600002 -0.023852346 1.2132714e-38 328 259
0.01131426 0.71700001 -0.02388566 1.2317105e-38 329 259
0.012606465 0.71899998 -0.023952285 1.2134882e-38 330 259
0.0138864 0.72000003 -0.0239856 1.1950491e-38 331 259
0.0151488 0.72000003 -0.0239856 1.0750149e-38 332 259
0.016456785 0.722 -0.024052227 9.8281932e-39 333 259
0.017722692 0.722 -0.024052227 1.4278053e-38 334 259
0.0189886 0.722 -0.024052227 1.6583304e-38 335 259
-0.039895348 0.73400003 -0.025738932 1.5020309e-38 289 260
-0.038555797 0.73299998 -0.025703866 1.3342783e-38 290 260
-0.037270606 0.73299998 -0.025703866 9.9315445e-39 291 260
-0.035887226 0.73100001 -0.025633732 1.259584e-38 292 260
-0.034463517 0.72799999 -0.025528532 1.1673885e-38 293 260
-0.033141505 0.727 -0.025493465 1.2314936e-38 294 260
-0.031691495 0.72299999 -0.025353199 1.1762121e-38 295 260
-0.030381758 0.722 -0.025318133 1.2403535e-38 296 260
-0.029115854 0.722 -0.025318133 1.2403535e-38 297 260
-0.027772799 0.72000003 -0.025248 1.2312774e-38 298 260
-0.026510401 0.72000003 -0.025248 1.2220578e-38 299 260
-0.025212931 0.71899998 -0.025212931 1.2589003e-38 300 260
-0.02388566 0.71700001 -0.0251428 1.2681199e-38 301 260
-0.02262852 0.71700001 -0.0251428 1.2683364e-38 302 260
-0.021371379 0.71700001 -0.0251428 1.3144702e-38 303 260
-0.020114239 0.71700001 -0.0251428 1.2872797e-38 304 260
-0.0188308 0.71600002 -0.025107734 1.3241938e-38 305 260
-0.017575413 0.71600002 -0.025107734 1.2968593e-38 306 260
-0.016274439 0.71399999 -0.025037598 1.3152624e-38 307 260
-0.015022559 0.71399999 -0.025037598 1.3336299e-38 308 260
-0.013751393 0.713 -0.025002534 1.2967158e-38 309 260
-0.012501267 0.713 -0.025002534 1.3240138e-38 310 260
-0.011251139 0.713 -0.025002534 1.2502573e-38 311 260
-0.0099729598 0.71100003 -0.024932399 1.2774118e-38 312 260
-0.0087263398 0.71100003 -0.024932399 1.2774118e-38 313 260
-0.0074797203 0.71100003 -0.024932399 1.2587566e-38 314 260
-0.0062330998 0.71100003 -0.024932399 1.2863792e-38 315 260
-0.0049864799 0.71100003 -0.024932399 1.2865945e-38 316 260
-0.0037398601 0.71100003 -0.024932399 1.2865945e-38 317 260
-0.0024932399 0.71100003 -0.024932399 1.2774821e-38 318 260
-0.00124662 0.71100003 -0.024932399 1.2867017e-38 319 260
0 0.71100003 -0.024932399 1.2590431e-38 320 260
0.00124662 0.71100003 -0.024932399 1.2590431e-38 321 260
0.0024932399 0.71100003 -0.024932399 1.240676e-38 322 260
0.0037398601 0.71100003 -0.024932399 1.240676e-38 323 260
0.0049864799 0.71100003 -0.024932399 1.2130899e-38 324 260
0.0062330998 0.71100003 -0.024932399 1.2038345e-38 325 260
0.0075007593 0.713 -0.025002534 1.2222739e-38 326 260
0.0087631596 0.71399999 -0.025037598 1.2222739e-38 327 260
0.01001504 0.71399999 -0.025037598 1.2223106e-38 328 260
0.01129848 0.71600002 -0.025107734 1.231566e-38 329 260
0.0125714 0.71700001 -0.0251428 1.2132714e-38 330 260
0.013867113 0.71899998 -0.025212931 1.222491e-38 331 260
0.0151488 0.72000003 -0.025248 1.1487345e-38 332 260
0.016456785 0.722 -0.025318133 1.056539e-38 333 260
0.017722692 0.722 -0.025318133 1.2429461e-38 334 260
0.0189886 0.722 -0.025318133 1.6209123e-38 335 260
-0.038608398 0.73400003 -0.02702588 1.3619366e-38 290 261
-0.037270606 0.73299998 -0.026989058 1.0484715e-38 291 261
-0.035887226 0.73100001 -0.026915418 1.2778784e-38 292 261
-0.03441618 0.727 -0.026768139 1.2133415e-38 293 261
-0.033050332 0.72500002 -0.026694499 1.231349e-38 294 261
-0.031647664 0.722 -0.026584039 1.1945072e-38 295 261
-0.030381758 0.722 -0.026584039 1.2035831e-38 296 261
-0.029035201 0.72000003 -0.026510401 1.2128027e-38 297 261
-0.027772799 0.72000003 -0.026510401 1.2128029e-38 298 261
-0.02647358 0.71899998 -0.02647358 1.2128029e-38 299 261
-0.025212931 0.71899998 -0.02647358 1.2220591e-38 300 261
-0.02388566 0.71700001 -0.02639994 1.2589733e-38 301 261
-0.022596961 0.71600002 -0.026363119 1.2500417e-38 302 261
-0.021341572 0.71600002 -0.026363119 1.3145787e-38 303 261
-0.020114239 0.71700001 -0.02639994 1.2691283e-38 304 261
-0.0188308 0.71600002 -0.026363119 1.3244457e-38 305 261
-0.017575413 0.71600002 -0.026363119 1.3247688e-38 306 261
-0.016274439 0.71399999 -0.026289478 1.3432438e-38 307 261
-0.015022559 0.71399999 -0.026289478 1.3617535e-38 308 261
-0.013751393 0.713 -0.026252659 1.352534e-38 309 261
-0.012501267 0.713 -0.026252659 1.352247e-38 310 261
-0.011251139 0.713 -0.026252659 1.2692349e-38 311 261
-0.0099729598 0.71100003 -0.026179021 1.2777362e-38 312 261
-0.0087263398 0.71100003 -0.026179021 1.1671014e-38 313 261
-0.0074797203 0.71100003 -0.026179021 1.2587934e-38 314 261
-0.0062330998 0.71100003 -0.026179021 1.2587934e-38 315 261
-0.0049864799 0.71100003 -0.026179021 1.2588647e-38 316 261
-0.0037345996 0.70999998 -0.026142199 1.2680843e-38 317 261
-0.0024897333 0.70999998 -0.026142199 1.2590435e-38 318 261
-0.0012448666 0.70999998 -0.026142199 1.2590435e-38 319 261
0 0.71100003 -0.026179021 1.2315642e-38 320 261
0.00124662 0.71100003 -0.026179021 1.2315642e-38 321 261
0.0024932399 0.71100003 -0.026179021 1.2039777e-38 322 261
0.0037398601 0.71100003 -0.026179021 1.1947583e-38 323 261
0.0049864799 0.71100003 -0.026179021 1.2129824e-38 324 261
0.0062330998 0.71100003 -0.026179021 1.222202e-38 325 261
0.0075007593 0.713 -0.026252659 1.2130543e-38 326 261
0.0087508867 0.713 -0.026252659 1.2222739e-38 327 261
0.01001504 0.71399999 -0.026289478 1.2039794e-38 328 261
0.01129848 0.71600002 -0.026363119 1.2131989e-38 329 261
0.0125714 0.71700001 -0.02639994 1.1856131e-38 330 261
0.013828539 0.71700001 -0.02639994 1.1856131e-38 331 261
0.01512776 0.71899998 -0.02647358 1.1488068e-38 332 261
0.0164112 0.72000003 -0.026510401 1.1027088e-38 333 261
0.017673599 0.72000003 -0.026510401 1.1870167e-38 334 261
0.018935999 0.72000003 -0.026510401 1.601933e-38 335 261
-0.03441618 0.727 -0.028042812 1.1674239e-38 293 262
-0.032959159 0.72299999 -0.02788852 1.2313493e-38 294 262
-0.031647664 0.722 -0.027849946 1.1852519e-38 295 262
-0.030381758 0.722 -0.027849946 1.2035474e-38 296 262
-0.029035201 0.72000003 -0.027772799 1.2035474e-38 297 262
-0.027772799 0.72000003 -0.027772799 1.2035114e-38 298 262
-0.02647358 0.71899998 -0.027734226 1.2127308e-38 299 262
-0.025212931 0.71899998 -0.027734226 1.2128745e-38 300 262
-0.02388566 0.71700001 -0.027657079 1.2405332e-38 301 262
-0.022596961 0.71600002 -0.027618507 1.2499699e-38 302 262
-0.021341572 0.71600002 -0.027618507 1.3145068e-38 303 262
-0.020086186 0.71600002 -0.027618507 1.2781693e-38 304 262
-0.0188308 0.71600002 -0.027618507 1.3519258e-38 305 262
-0.017526319 0.71399999 -0.02754136 1.3523224e-38 306 262
-0.016251646 0.713 -0.027502786 1.4353345e-38 307 262
-0.015001519 0.713 -0.027502786 1.3713007e-38 308 262
-0.013751393 0.713 -0.027502786 1.3989593e-38 309 262
-0.0124662 0.71100003 -0.027425639 1.4448412e-38 310 262
-0.01121958 0.71100003 -0.027425639 1.3341704e-38 311 262
-0.0099729598 0.71100003 -0.027425639 1.3334504e-38 312 262
-0.0087263398 0.71100003 -0.027425639 1.1305841e-38 313 262
-0.0074797203 0.71100003 -0.027425639 1.2587934e-38 314 262
-0.0062330998 0.71100003 -0.027425639 1.2587934e-38 315 262
-0.0049864799 0.71100003 -0.027425639 1.2312421e-38 316 262
-0.0037345996 0.70999998 -0.027387066 1.2404616e-38 317 262
-0.0024897333 0.70999998 -0.027387066 1.2589001e-38 318 262
-0.0012448666 0.70999998 -0.027387066 1.2589001e-38 319 262
0 0.70999998 -0.027387066 1.2222373e-38 320 262
0.0012448666 0.70999998 -0.027387066 1.2406404e-38 321 262
0.0024897333 0.70999998 -0.027387066 1.2130899e-38 322 262
0.0037345996 0.70999998 -0.027387066 1.2130899e-38 323 262
0.0049864799 0.71100003 -0.027425639 1.2038345e-38 324 262
0.0062330998 0.71100003 -0.027425639 1.2038345e-38 325 262
0.0075007593 0.713 -0.027502786 1.2130899e-38 326 262
0.0087508867 0.713 -0.027502786 1.2130899e-38 327 262
0.01001504 0.71399999 -0.02754136 1.194795e-38 328 262
0.01129848 0.71600002 -0.027618507 1.2040147e-38 329 262
0.012553867 0.71600002 -0.027618507 1.1764287e-38 330 262
0.013828539 0.71700001 -0.027657079 1.1764287e-38 331 262
0.015085679 0.71700001 -0.027657079 1.1488424e-38 332 262
0.016388407 0.71899998 -0.027734226 1.0843054e-38 333 262
0.017673599 0.72000003 -0.027772799 1.1220113e-38 334 262
0.018935999 0.72000003 -0.027772799 1.5645503e-38 335 262
-0.03441618 0.727 -0.029317487 1.2316011e-38 293 263
-0.032959159 0.72299999 -0.029156178 1.231349e-38 294 263
-0.031647664 0.722 -0.029115854 1.1945072e-38 295 263
-0.030381758 0.722 -0.029115854 1.1852519e-38 296 263
-0.029035201 0.72000003 -0.029035201 1.1760324e-38 297 263
-0.027772799 0.72000003 -0.029035201 1.1943637e-38 298 263
-0.02647358 0.71899998 -0.028994869 1.2035831e-38 299 263
-0.0251428 0.71700001 -0.028914221 1.1944358e-38 300 263
-0.02388566 0.71700001 -0.028914221 1.2220944e-38 301 263
-0.022596961 0.71600002 -0.028873893 1.2314233e-38 302 263
-0.021341572 0.71600002 -0.028873893 1.2959602e-38 303 263
-0.020086186 0.71600002 -0.028873893 1.2779178e-38 304 263
-0.0188308 0.71600002 -0.028873893 1.3516744e-38 305 263
-0.017526319 0.71399999 -0.028793238 1.3155167e-38 306 263
-0.016251646 0.713 -0.028752912 1.3616145e-38 307 263
-0.015001519 0.713 -0.028752912 1.35279e-38 308 263
-0.01371282 0.71100003 -0.028672259 1.3896322e-38 309 263
-0.0124662 0.71100003 -0.028672259 1.4265465e-38 310 263
-0.01121958 0.71100003 -0.028672259 1.3804127e-38 311 263
-0.0099729598 0.71100003 -0.028672259 1.3613975e-38 312 263
-0.0087263398 0.71100003 -0.028672259 1.140128e-38 313 263
-0.0074797203 0.71100003 -0.028672259 1.2589378e-38 314 263
-0.0062330998 0.71100003 -0.028672259 1.2312789e-38 315 263
-0.0049794666 0.70999998 -0.028631933 1.2219872e-38 316 263
-0.0037345996 0.70999998 -0.028631933 1.2219872e-38 317 263
-0.0024897333 0.70999998 -0.028631933 1.2220225e-38 318 263
-0.0012448666 0.70999998 -0.028631933 1.2220225e-38 319 263
0 0.70999998 -0.028631933 1.2037629e-38 320 263
0.0012448666 0.70999998 -0.028631933 1.2129824e-38 321 263
0.0024897333 0.70999998 -0.028631933 1.2038348e-38 322 263
0.0037345996 0.70999998 -0.028631933 1.1946152e-38 323 263
0.0049864799 0.71100003 -0.028672259 1.2038348e-38 324 263
0.0062330998 0.71100003 -0.028672259 1.1946152e-38 325 263
0.0075007593 0.713 -0.028752912 1.2038348e-38 326 263
0.0087508867 0.713 -0.028752912 1.2130543e-38 327 263
0.010001013 0.713 -0.028752912 1.185468e-38 328 263
0.011266919 0.71399999 -0.028793238 1.1947234e-38 329 263
0.012553867 0.71600002 -0.028873893 1.1671014e-38 330 263
0.013809253 0.71600002 -0.028873893 1.1671014e-38 331 263
0.015085679 0.71700001 -0.028914221 1.1487342e-38 332 263
0.016388407 0.71899998 -0.028994869 1.1118918e-38 333 263
0.017649053 0.71899998 -0.028994869 1.1124317e-38 334 263
0.018909698 0.71899998 -0.028994869 1.5088729e-38 335 263
-0.034321502 0.72500002 -0.030508002 1.2317809e-38 293 264
-0.032959159 0.72299999 -0.030423839 1.240676e-38 294 264
-0.031691495 0.72299999 -0.030423839 1.2038342e-38 295 264
-0.030381758 0.722 -0.030381758 1.2128745e-38 296 264
-0.029115854 0.722 -0.030381758 1.1852519e-38 297 264
-0.027772799 0.72000003 -0.0302976 1.2035831e-38 298 264
-0.02647358 0.71899998 -0.030255521 1.2035831e-38 299 264
-0.0251428 0.71700001 -0.030171359 1.1944358e-38 300 264
-0.02388566 0.71700001 -0.030171359 1.1944358e-38 301 264
-0.022596961 0.71600002 -0.03012928 1.2129121e-38 302 264
-0.021341572 0.71600002 -0.03012928 1.277449e-38 303 264
-0.020086186 0.71600002 -0.03012928 1.2501513e-38 304 264
-0.018778199 0.71399999 -0.030045118 1.3239078e-38 305 264
-0.017501773 0.713 -0.030003037 1.278494e-38 306 264
-0.016251646 0.713 -0.030003037 1.3430309e-38 307 264
-0.014959441 0.71100003 -0.029918881 1.3248082e-38 308 264
-0.01371282 0.71100003 -0.029918881 1.3525029e-38 309 264
-0.0124662 0.71100003 -0.029918881 1.3526464e-38 310 264
-0.01121958 0.71100003 -0.029918881 1.3618659e-38 311 264
-0.0099729598 0.71100003 -0.029918881 1.3430665e-38 312 264
-0.0087263398 0.71100003 -0.029918881 1.1309807e-38 313 264
-0.0074797203 0.71100003 -0.029918881 1.2316389e-38 314 264
-0.0062330998 0.71100003 -0.029918881 1.1855051e-38 315 264
-0.0049794666 0.70999998 -0.029876797 1.2128395e-38 316 264
-0.0037345996 0.70999998 -0.029876797 1.1944364e-38 317 264
-0.0024897333 0.70999998 -0.029876797 1.1944364e-38 318 264
-0.0012448666 0.70999998 -0.029876797 1.1944364e-38 319 264
0 0.70999998 -0.029876797 1.194508e-38 320 264
0.0012448666 0.70999998 -0.029876797 1.2037276e-38 321 264
0.0024897333 0.70999998 -0.029876797 1.1761768e-38 322 264
0.0037345996 0.70999998 -0.029876797 1.1945799e-38 323 264
0.0049864799 0.71100003 -0.029918881 1.185468e-38 324 264
0.0062330998 0.71100003 -0.029918881 1.185468e-38 325 264
0.0074797203 0.71100003 -0.029918881 1.1947234e-38 326 264
0.0087263398 0.71100003 -0.029918881 1.185468e-38 327 264
0.010001013 0.713 -0.030003037 1.1854682e-38 328 264
0.011266919 0.71399999 -0.030045118 1.1854682e-38 329 264
0.012553867 0.71600002 -0.03012928 1.1762134e-38 330 264
0.013809253 0.71600002 -0.03012928 1.1669938e-38 331 264
0.015085679 0.71700001 -0.030171359 1.1394796e-38 332 264
0.016342819 0.71700001 -0.030171359 1.1671383e-38 333 264
0.017649053 0.71899998 -0.030255521 1.1123248e-38 334 264
0.018909698 0.71899998 -0.030255521 1.4627041e-38 335 264
-0.035690852 0.727 -0.03186683 1.3056095e-38 292 265
-0.034321502 0.72500002 -0.031779166 1.231853e-38 293 265
-0.032959159 0.72299999 -0.031691495 1.231709e-38 294 265
-0.031691495 0.72299999 -0.031691495 1.1855752e-38 295 265
-0.030381758 0.722 -0.031647664 1.2129827e-38 296 265
-0.029115854 0.722 -0.031647664 1.1945077e-38 297 265
-0.027772799 0.72000003 -0.03156 1.1852161e-38 298 265
-0.02647358 0.71899998 -0.031516165 1.1759966e-38 299 265
-0.0251428 0.71700001 -0.031428497 1.2128029e-38 300 265
-0.02388566 0.71700001 -0.031428497 1.2128029e-38 301 265
-0.022596961 0.71600002 -0.031384666 1.2220591e-38 302 265
-0.021341572 0.71600002 -0.031384666 1.2589733e-38 303 265
-0.020086186 0.71600002 -0.031384666 1.2498627e-38 304 265
-0.018778199 0.71399999 -0.031296998 1.30518e-38 305 265
-0.017501773 0.713 -0.031253166 1.2778822e-38 306 265
-0.016251646 0.713 -0.031253166 1.3424191e-38 307 265
-0.014959441 0.71100003 -0.031165501 1.2690226e-38 308 265
-0.01371282 0.71100003 -0.031165501 1.2966454e-38 309 265
-0.0124662 0.71100003 -0.031165501 1.2876412e-38 310 265
-0.01121958 0.71100003 -0.031165501 1.3060804e-38 311 265
-0.0099729598 0.71100003 -0.031165501 1.2875338e-38 312 265
-0.0087263398 0.71100003 -0.031165501 1.2045576e-38 313 265
-0.0074797203 0.71100003 -0.031165501 1.2407153e-38 314 265
-0.0062330998 0.71100003 -0.031165501 1.1853979e-38 315 265
-0.0049794666 0.70999998 -0.031121666 1.1944364e-38 316 265
-0.0037345996 0.70999998 -0.031121666 1.1851808e-38 317 265
-0.0024897333 0.70999998 -0.031121666 1.1759969e-38 318 265
-0.0012448666 0.70999998 -0.031121666 1.1852164e-38 319 265
0 0.70999998 -0.031121666 1.1760685e-38 320 265
0.0012448666 0.70999998 -0.031121666 1.1852882e-38 321 265
0.0024897333 0.70999998 -0.031121666 1.1669572e-38 322 265
0.0037345996 0.70999998 -0.031121666 1.1761768e-38 323 265
0.0049864799 0.71100003 -0.031165501 1.1762487e-38 324 265
0.0062330998 0.71100003 -0.031165501 1.1762487e-38 325 265
0.0074797203 0.71100003 -0.031165501 1.185468e-38 326 265
0.0087263398 0.71100003 -0.031165501 1.1762484e-38 327 265
0.010001013 0.713 -0.031253166 1.1762487e-38 328 265
0.011266919 0.71399999 -0.031296998 1.1670291e-38 329 265
0.012518799 0.71399999 -0.031296998 1.157774e-38 330 265
0.013809253 0.71600002 -0.031384666 1.1393707e-38 331 265
0.01506464 0.71600002 -0.031384666 1.1394077e-38 332 265
0.016342819 0.71700001 -0.031428497 1.2131642e-38 333 265
0.017599959 0.71700001 -0.031428497 1.1307998e-38 334 265
0.018857099 0.71700001 -0.031428497 1.4165702e-38 335 265
-0.035690852 0.727 -0.033141505 1.3148276e-38 292 266
-0.034321502 0.72500002 -0.033050332 1.287133e-38 293 266
-0.032959159 0.72299999 -0.032959159 1.2776255e-38 294 266
-0.031691495 0.72299999 -0.032959159 1.2499313e-38 295 266
-0.030381758 0.722 -0.032913569 1.2406043e-38 296 266
-0.029115854 0.722 -0.032913569 1.2129101e-38 297 266
-0.027772799 0.72000003 -0.0328224 1.2220578e-38 298 266
-0.02647358 0.71899998 -0.032776814 1.2128025e-38 299 266
-0.0251428 0.71700001 -0.032685637 1.2128027e-38 300 266
-0.023852346 0.71600002 -0.032640055 1.2035831e-38 301 266
-0.022596961 0.71600002 -0.032640055 1.2128039e-38 302 266
-0.021341572 0.71600002 -0.032640055 1.2312789e-38 303 266
-0.020086186 0.71600002 -0.032640055 1.2129136e-38 304 266
-0.018778199 0.71399999 -0.032548878 1.2406083e-38 305 266
-0.017501773 0.713 -0.032503292 1.2407542e-38 306 266
-0.016251646 0.713 -0.032503292 1.2684128e-38 307 266
-0.014959441 0.71100003 -0.032412119 1.2594083e-38 308 266
-0.01371282 0.71100003 -0.032412119 1.2686279e-38 309 266
-0.0124662 0.71100003 -0.032412119 1.2779898e-38 310 266
-0.01121958 0.71100003 -0.032412119 1.2964289e-38 311 266
-0.0099729598 0.71100003 -0.032412119 1.2779895e-38 312 266
-0.0087263398 0.71100003 -0.032412119 1.2226721e-38 313 266
-0.0074797203 0.71100003 -0.032412119 1.2406781e-38 314 266
-0.0062330998 0.71100003 -0.032412119 1.1761412e-38 315 266
-0.0049794666 0.70999998 -0.032366529 1.2127673e-38 316 266
-0.0037345996 0.70999998 -0.032366529 1.175925e-38 317 266
-0.0024897333 0.70999998 -0.032366529 1.1667773e-38 318 266
-0.0012448666 0.70999998 -0.032366529 1.1759969e-38 319 266
0 0.70999998 -0.032366529 1.1484824e-38 320 266
0.0012448666 0.70999998 -0.032366529 1.1577019e-38 321 266
0.0024897333 0.70999998 -0.032366529 1.1393707e-38 322 266
0.0037345996 0.70999998 -0.032366529 1.157774e-38 323 266
0.0049864799 0.71100003 -0.032412119 1.1486623e-38 324 266
0.0062330998 0.71100003 -0.032412119 1.1578819e-38 325 266
0.0074797203 0.71100003 -0.032412119 1.1395143e-38 326 266
0.0087508867 0.713 -0.032503292 1.1395143e-38 327 266
0.010001013 0.713 -0.032503292 1.1394427e-38 328 266
0.011266919 0.71399999 -0.032548878 1.130223e-38 329 266
0.012518799 0.71399999 -0.032548878 1.1208963e-38 330 266
0.013809253 0.71600002 -0.032640055 1.1301158e-38 331 266
0.01506464 0.71600002 -0.032640055 1.1210412e-38 332 266
0.016342819 0.71700001 -0.032685637 1.1855781e-38 333 266
0.017599959 0.71700001 -0.032685637 1.1490944e-38 334 266
0.018857099 0.71700001 -0.032685637 1.3979868e-38 335 266
0.020114239 0.71700001 -0.032685637 1.5384381e-38 336 266
-0.036965527 0.727 -0.03441618 1.1139792e-38 291 267
-0.035690852 0.727 -0.03441618 1.2965699e-38 292 267
-0.034321502 0.72500002 -0.034321502 1.2412525e-38 293 267
-0.032959159 0.72299999 -0.03422682 1.2595119e-38 294 267
-0.031691495 0.72299999 -0.03422682 1.2041945e-38 295 267
-0.030381758 0.722 -0.034179479 1.2132343e-38 296 267
-0.029115854 0.722 -0.034179479 1.1855754e-38 297 267
-0.027772799 0.72000003 -0.034084801 1.2221297e-38 298 267
-0.02647358 0.71899998 -0.03403746 1.2221297e-38 299 267
-0.0251428 0.71700001 -0.033942781 1.2127308e-38 300 267
-0.023852346 0.71600002 -0.03389544 1.2127308e-38 301 267
-0.022596961 0.71600002 -0.03389544 1.2127673e-38 302 267
-0.021341572 0.71600002 -0.03389544 1.2219869e-38 303 267
-0.020086186 0.71600002 -0.03389544 1.2220594e-38 304 267
-0.018778199 0.71399999 -0.033800758 1.2404985e-38 305 267
-0.017526319 0.71399999 -0.033800758 1.2497548e-38 306 267
-0.016251646 0.713 -0.033753417 1.2774493e-38 307 267
-0.014959441 0.71100003 -0.033658739 1.2591547e-38 308 267
-0.01371282 0.71100003 -0.033658739 1.2867775e-38 309 267
-0.0124662 0.71100003 -0.033658739 1.2685179e-38 310 267
-0.01121958 0.71100003 -0.033658739 1.2685179e-38 311 267
-0.0099729598 0.71100003 -0.033658739 1.2408951e-38 312 267
-0.0087263398 0.71100003 -0.033658739 1.2039809e-38 313 267
-0.0074797203 0.71100003 -0.033658739 1.2221317e-38 314 267
-0.0062330998 0.71100003 -0.033658739 1.194473e-38 315 267
-0.0049794666 0.70999998 -0.033611398 1.1852161e-38 316 267
-0.0037345996 0.70999998 -0.033611398 1.1759966e-38 317 267
-0.0024897333 0.70999998 -0.033611398 1.1576654e-38 318 267
-0.0012448666 0.70999998 -0.033611398 1.1484459e-38 319 267
0 0.70999998 -0.033611398 1.1484459e-38 320 267
0.0012448666 0.70999998 -0.033611398 1.1576654e-38 321 267
0.0024897333 0.70999998 -0.033611398 1.1484459e-38 322 267
0.0037345996 0.70999998 -0.033611398 1.1576654e-38 323 267
0.0049864799 0.71100003 -0.033658739 1.1301509e-38 324 267
0.0062330998 0.71100003 -0.033658739 1.1393704e-38 325 267
0.0074797203 0.71100003 -0.033658739 1.139406e-38 326 267
0.0087508867 0.713 -0.033753417 1.1301864e-38 327 267
0.01001504 0.71399999 -0.033800758 1.1209313e-38 328 267
0.01129848 0.71600002 -0.03389544 1.1117117e-38 329 267
0.012553867 0.71600002 -0.03389544 1.1300432e-38 330 267
0.013809253 0.71600002 -0.03389544 1.1392628e-38 331 267
0.01506464 0.71600002 -0.03389544 1.1394074e-38 332 267
0.016320027 0.71600002 -0.03389544 1.2039444e-38 333 267
0.017575413 0.71600002 -0.03389544 1.158169e-38 334 267
0.0188308 0.71600002 -0.03389544 1.4163166e-38 335 267
0.020086186 0.71600002 -0.03389544 1.5475488e-38 336 267
-0.036965527 0.727 -0.035690852 1.1511818e-38 291 268
-0.035690852 0.727 -0.035690852 1.296499e-38 292 268
-0.034321502 0.72500002 -0.035592668 1.2780599e-38 293 268
-0.033050332 0.72500002 -0.035592668 1.2777715e-38 294 268
-0.031779166 0.72500002 -0.035592668 1.2500768e-38 295 268
-0.030423839 0.72299999 -0.035494477 1.2500039e-38 296 268
-0.029115854 0.722 -0.035445385 1.2315288e-38 297 268
-0.027772799 0.72000003 -0.035347197 1.2406404e-38 298 268
-0.02647358 0.71899998 -0.035298105 1.2037983e-38 299 268
-0.0251428 0.71700001 -0.035199918 1.2220578e-38 300 268
-0.023852346 0.71600002 -0.035150826 1.2220578e-38 301 268
-0.022596961 0.71600002 -0.035150826 1.240354e-38 302 268
-0.021341572 0.71600002 -0.035150826 1.2495736e-38 303 268
-0.020086186 0.71600002 -0.035150826 1.2129477e-38 304 268
-0.018778199 0.71399999 -0.035052639 1.2221673e-38 305 268
-0.017526319 0.71399999 -0.035052639 1.2222041e-38 306 268
-0.016251646 0.713 -0.035003547 1.2222041e-38 307 268
-0.015001519 0.713 -0.035003547 1.2314607e-38 308 268
-0.01371282 0.71100003 -0.034905359 1.2406802e-38 309 268
-0.0124662 0.71100003 -0.034905359 1.2315683e-38 310 268
-0.01121958 0.71100003 -0.034905359 1.2223487e-38 311 268
-0.0099729598 0.71100003 -0.034905359 1.2314954e-38 312 268
-0.0087263398 0.71100003 -0.034905359 1.194653e-38 313 268
-0.0074691991 0.70999998 -0.034856264 1.2037276e-38 314 268
-0.0062243328 0.70999998 -0.034856264 1.1852884e-38 315 268
-0.0049794666 0.70999998 -0.034856264 1.1943637e-38 316 268
-0.0037345996 0.70999998 -0.034856264 1.1759607e-38 317 268
-0.0024897333 0.70999998 -0.034856264 1.1575577e-38 318 268
-0.0012448666 0.70999998 -0.034856264 1.1575577e-38 319 268
0 0.70999998 -0.034856264 1.1483383e-38 320 268
0.0012448666 0.70999998 -0.034856264 1.1575577e-38 321 268
0.0024897333 0.70999998 -0.034856264 1.1300432e-38 322 268
0.0037345996 0.70999998 -0.034856264 1.1392628e-38 323 268
0.0049864799 0.71100003 -0.034905359 1.1209316e-38 324 268
0.0062330998 0.71100003 -0.034905359 1.1209316e-38 325 268
0.0074797203 0.71100003 -0.034905359 1.1209316e-38 326 268
0.0087508867 0.713 -0.035003547 1.1116761e-38 327 268
0.01001504 0.71399999 -0.035052639 1.1116042e-38 328 268
