# .PCD v0.7 - Point Cloud Data file format
VERSION 0.7
FIELDS x y z rgb
SIZE 4 4 4 4
TYPE F F F U
COUNT 1 1 1 1
WIDTH 1109
HEIGHT 1
VIEWPOINT 0 0 0 1 0 0 0
POINTS 1109
DATA ascii
-0.230957 -0.039215099 -0.33325201 11512748
-0.230103 -0.039337199 -0.33422899 11315369
-0.228516 -0.039337199 -0.33422899 11644074
-0.225952 -0.039459199 -0.33520499 11184553
-0.20422401 -0.035919201 -0.30517599 11118760
-0.20422401 -0.0361633 -0.307129 11447978
-0.20336901 -0.0362854 -0.30810499 11316392
-0.201904 -0.0362854 -0.30810499 11184553
-0.20117199 -0.036377002 -0.309082 11381932
-0.200317 -0.036499001 -0.31005901 11511718
-0.198853 -0.036499001 -0.31005901 11511718
-0.19738799 -0.036499001 -0.31005901 11314339
-0.19665501 -0.036621101 -0.31103501 11380902
-0.19519 -0.036621101 -0.31103501 11447208
-0.194336 -0.036743201 -0.31201199 11117730
-0.19409201 -0.036987301 -0.31420901 11380132
-0.19323701 -0.037109401 -0.31518599 11117477
-0.19238301 -0.037231401 -0.31616199 11446955
-0.193848 -0.037811302 -0.32104501 11117990
-0.194214 -0.038177501 -0.32421899 11315622
-0.19323701 -0.038268998 -0.32519501 11578794
-0.193481 -0.038635299 -0.328125 11447208
-0.19189499 -0.038635299 -0.328125 11052448
-0.19103999 -0.038757298 -0.32910201 11051935
-0.190063 -0.038879398 -0.33007801 11315107
-0.189087 -0.039001498 -0.33105499 11182753
-0.1875 -0.039001498 -0.33105499 11249316
-0.16369601 -0.0361633 -0.307129 11117990
-0.162231 -0.0361633 -0.307129 10724255
-0.160889 -0.0361633 -0.307129 11053220
-0.15942401 -0.0361633 -0.307129 10658460
-0.157471 -0.036041301 -0.30615199 10658462
-0.155518 -0.035919201 -0.30517599 10658462
-0.15356401 -0.035797101 -0.30395499 10723485
-0.151611 -0.035675 -0.30297899 11051684
-0.14965799 -0.035553001 -0.30200201 10723485
-0.148315 -0.035553001 -0.30200201 10855071
-0.14587399 -0.0353394 -0.30004901 10854818
-0.144409 -0.0353394 -0.30004901 10920098
-0.14257801 -0.0352173 -0.299072 10723232
-0.141113 -0.0352173 -0.299072 10592416
-0.139282 -0.0350952 -0.298096 10592669
-0.137817 -0.0350952 -0.298096 10724255
-0.136475 -0.0350952 -0.298096 10592416
-0.135498 -0.0352173 -0.299072 10394520
-0.13415501 -0.0352173 -0.299072 10526104
-0.13317899 -0.0353394 -0.30004901 10526106
-0.131714 -0.0353394 -0.30004901 10328727
-0.127563 -0.0353394 -0.30004901 10460830
-0.125732 -0.0352173 -0.299072 10460832
-0.124329 -0.0352173 -0.299072 10592675
-0.122498 -0.0350952 -0.298096 10526882
-0.121094 -0.0350952 -0.298096 10526880
-0.119263 -0.0349731 -0.29711899 10330271
-0.117493 -0.0348511 -0.296143 10526880
-0.115295 -0.0346069 -0.29394501 10659236
-0.113525 -0.034484901 -0.29296899 10527650
-0.113403 -0.0353394 -0.30004901 10790052
-0.112854 -0.036499001 -0.31005901 10594215
-0.111755 -0.036621101 -0.31103501 10396066
-0.110657 -0.036743201 -0.31201199 10790052
-0.109192 -0.036743201 -0.31201199 10987684
-0.107727 -0.036743201 -0.31201199 11053477
-0.106262 -0.036743201 -0.31201199 10988454
-0.104797 -0.036743201 -0.31201199 10659236
-0.102966 -0.036621101 -0.31103501 10528420
-0.101501 -0.036621101 -0.31103501 10528420
-0.100037 -0.036621101 -0.31103501 10528420
-0.098266602 -0.036499001 -0.31005901 10527652
-0.092346199 -0.035919201 -0.30517599 10790822
-0.087463401 -0.035675 -0.30297899 10528422
-0.088317901 -0.036621101 -0.31103501 10725801
-0.086852998 -0.036621101 -0.31103501 10594215
-0.085143998 -0.036499001 -0.31005901 10660008
-0.083679199 -0.036499001 -0.31005901 10528422
-0.079040498 -0.0350952 -0.298096 10528422
-0.077636696 -0.0350952 -0.298096 10396836
-0.075683601 -0.0348511 -0.296143 10660521
-0.0740356 -0.034729 -0.29492199 10660521
-0.072692901 -0.034729 -0.29492199 10528422
-0.071533203 -0.0348511 -0.296143 10331556
-0.070373498 -0.0349731 -0.29711899 10594728
-0.068969697 -0.0349731 -0.29711899 10463912
-0.067565903 -0.0349731 -0.29711899 10332326
-0.066406302 -0.0350952 -0.298096 10529703
-0.065002397 -0.0350952 -0.298096 10529703
-0.043731701 -0.036041301 -0.30615199 10332841
-0.0424194 -0.0361633 -0.307129 10595500
-0.0409851 -0.0361633 -0.307129 10529707
-0.0396729 -0.0362854 -0.30810499 10398121
-0.0384827 -0.036499001 -0.31005901 10529707
-0.0370178 -0.036499001 -0.31005901 10529707
-0.035797101 -0.036743201 -0.31201199 10595246
-0.034423798 -0.036865201 -0.31298801 10529453
-0.032958999 -0.036865201 -0.31298801 10595500
-0.031585701 -0.036987301 -0.31420901 10398121
-0.0301056 -0.036987301 -0.31420901 10529707
-0.0287323 -0.037109401 -0.31518599 10463914
-0.027328501 -0.037231401 -0.31616199 10529707
-0.0258484 -0.037231401 -0.31616199 10661293
0.050933801 -0.035797101 -0.30395499 10858670
0.052368201 -0.035797101 -0.30395499 10661291
0.053436302 -0.035553001 -0.30200201 10924463
0.054290801 -0.0352173 -0.299072 10858670
0.055725101 -0.0352173 -0.299072 10858670
0.0567322 -0.0349731 -0.29711899 10792877
0.0585327 -0.0352173 -0.299072 10792875
0.060546901 -0.035553001 -0.30200201 10924461
0.061950698 -0.035553001 -0.30200201 10792875
0.063598603 -0.035675 -0.30297899 10595496
0.065429702 -0.035919201 -0.30517599 10792875
0.067077599 -0.036041301 -0.30615199 10989484
0.068969697 -0.0362854 -0.30810499 11121070
0.070678703 -0.036377002 -0.309082 11121072
0.072326697 -0.036499001 -0.31005901 10923693
0.073791496 -0.036499001 -0.31005901 10792877
0.075500503 -0.036621101 -0.31103501 10924976
0.076965302 -0.036621101 -0.31103501 10924976
0.078185998 -0.036499001 -0.31005901 11056049
0.079650901 -0.036499001 -0.31005901 11121842
0.080810502 -0.036377002 -0.309082 10990256
0.082031302 -0.0362854 -0.30810499 11121072
0.103333 -0.032501198 -0.275879 11382189
0.104248 -0.032379199 -0.27490199 11382442
0.107605 -0.0325928 -0.27685499 11382185
0.126343 -0.033447299 -0.28393599 11118243
0.12817401 -0.0335388 -0.28491199 11118760
0.14331099 -0.0349731 -0.29711899 11249576
0.14428701 -0.0348511 -0.296143 11249576
0.14563 -0.0348511 -0.296143 11512748
0.146484 -0.034729 -0.29492199 11512748
0.147949 -0.034729 -0.29492199 11578794
0.14929201 -0.034729 -0.29492199 11644074
0.14501999 -0.033447299 -0.28393599 11315109
0.14636201 -0.033447299 -0.28393599 11315622
0.14721701 -0.033325199 -0.28295901 11447208
0.147949 -0.033203099 -0.281982 11249063
0.14880399 -0.033081099 -0.28100601 11183270
0.149048 -0.032836899 -0.279053 10921634
0.150391 -0.032836899 -0.279053 10855841
0.151123 -0.032714799 -0.27807599 11184036
0.152954 -0.032836899 -0.279053 11184036
0.164673 -0.033081099 -0.28100601 10987684
0.166016 -0.033081099 -0.28100601 10461857
0.167236 -0.033081099 -0.28100601 10855845
0.168579 -0.033081099 -0.28100601 10987425
0.16992199 -0.033081099 -0.28100601 11052448
0.170654 -0.032958999 -0.280029 11053218
0.171997 -0.032958999 -0.280029 10987682
0.17333999 -0.032958999 -0.280029 10856096
0.17456099 -0.032958999 -0.280029 10855839
0.175293 -0.032836899 -0.279053 11447208
0.176636 -0.032836899 -0.279053 11118241
0.177856 -0.032836899 -0.279053 11381154
0.179199 -0.032836899 -0.279053 11381154
0.181152 -0.032958999 -0.280029 11381154
0.18310501 -0.033081099 -0.28100601 11381154
0.18518101 -0.033203099 -0.281982 11381154
0.187134 -0.033325199 -0.28295901 11381154
0.18981899 -0.0335388 -0.28491199 11381154
0.191772 -0.0336609 -0.285889 11381154
0.193848 -0.033783 -0.28710899 11381154
0.19519 -0.033783 -0.28710899 11381154
0.197266 -0.033904999 -0.288086 11381154
0.198608 -0.033904999 -0.288086 11381154
0.19995099 -0.033904999 -0.288086 11381154
0.20202599 -0.0340271 -0.28906301 11381154
0.20410199 -0.0341492 -0.290039 11381154
0.20751999 -0.034484901 -0.29296899 11381154
0.20959499 -0.0346069 -0.29394501 11381154
0.21106 -0.0346069 -0.29394501 11381154
0.213135 -0.034729 -0.29492199 11381154
0.214478 -0.034729 -0.29492199 11381154
0.21521001 -0.0346069 -0.29394501 11381154
0.21582 -0.034484901 -0.29296899 11381154
0.217163 -0.034484901 -0.29296899 11381154
0.21777301 -0.034393299 -0.29199201 11381154
0.219971 -0.034484901 -0.29296899 11381154
0.22583 -0.0341492 -0.290039 11381154
0.227295 -0.0341492 -0.290039 11381154
0.22863799 -0.0341492 -0.290039 11381154
0.22912601 -0.0340271 -0.28906301 11381154
0.230591 -0.0340271 -0.28906301 11381154
0.231934 -0.0340271 -0.28906301 11381154
0.23242199 -0.033904999 -0.288086 11381154
0.27880901 -0.0353394 -0.30004901 11381154
0.27929699 -0.0352173 -0.299072 11381154
0.28076199 -0.0352173 -0.299072 11381154
0.281982 -0.0352173 -0.299072 11381154
0.283447 -0.0352173 -0.299072 11381154
0.28491199 -0.0352173 -0.299072 11381154
0.28637701 -0.0352173 -0.299072 11381154
0.286865 -0.0350952 -0.298096 11381154
0.28906301 -0.0352173 -0.299072 11381154
0.28955099 -0.0350952 -0.298096 11381154
-0.20422401 -0.037353501 -0.30517599 11184034
-0.203491 -0.037475601 -0.30615199 11184034
-0.202759 -0.037597701 -0.307129 11513001
-0.201294 -0.037597701 -0.307129 11380902
-0.20043901 -0.0377197 -0.30810499 11643304
-0.199707 -0.037841801 -0.309082 11314339
-0.19824199 -0.037841801 -0.309082 11249314
-0.19738799 -0.037963901 -0.31005901 10920349
-0.195923 -0.037963901 -0.31005901 11183521
-0.19519 -0.0380859 -0.31103501 11445410
-0.193726 -0.0380859 -0.31103501 11576998
-0.193481 -0.0383301 -0.31298801 11379619
-0.192627 -0.0384521 -0.31420901 11445412
-0.19116201 -0.0384521 -0.31420901 11709095
-0.16369601 -0.037597701 -0.307129 11052189
-0.162231 -0.037597701 -0.307129 11249568
-0.160889 -0.037597701 -0.307129 11052702
-0.15942401 -0.037597701 -0.307129 11183775
-0.157471 -0.037475601 -0.30615199 10920349
-0.155518 -0.037353501 -0.30517599 11249314
-0.15356401 -0.037231401 -0.30395499 11051935
-0.151611 -0.037109401 -0.30297899 10920351
-0.14965799 -0.036987301 -0.30200201 10657439
-0.147827 -0.036865201 -0.301025 11183783
-0.14587399 -0.036743201 -0.30004901 10920098
-0.143921 -0.036621101 -0.299072 11051937
-0.14257801 -0.036621101 -0.299072 11183523
-0.140625 -0.036499001 -0.298096 11051937
-0.139282 -0.036499001 -0.298096 10986657
-0.137817 -0.036499001 -0.298096 10855071
-0.136475 -0.036499001 -0.298096 10987427
-0.135132 -0.036499001 -0.298096 10987427
-0.13415501 -0.036621101 -0.299072 10855841
-0.13269 -0.036621101 -0.299072 11052450
-0.131714 -0.036743201 -0.30004901 11053220
-0.130371 -0.036743201 -0.30004901 10921634
-0.129761 -0.036987301 -0.30200201 10921381
-0.127563 -0.036743201 -0.30004901 11052967
-0.125732 -0.036621101 -0.299072 10987431
-0.123901 -0.036499001 -0.298096 10921638
-0.119202 -0.035522498 -0.290039 11053224
-0.118225 -0.035644501 -0.29101601 11053224
-0.116882 -0.035644501 -0.29101601 11119017
-0.115479 -0.035644501 -0.29101601 11053224
-0.114502 -0.035766602 -0.29199201 10791075
-0.113159 -0.035766602 -0.29199201 10790822
-0.112549 -0.036010701 -0.29394501 10922408
-0.111511 -0.036132801 -0.29492199 10988201
-0.110657 -0.038208 -0.31201199 10988201
-0.109192 -0.038208 -0.31201199 10988201
-0.107727 -0.038208 -0.31201199 10988201
-0.106262 -0.038208 -0.31201199 10988201
-0.104431 -0.0380859 -0.31103501 11054764
-0.102966 -0.0380859 -0.31103501 10989484
-0.093200698 -0.036010701 -0.29394501 10790822
-0.092102103 -0.036132801 -0.29492199 10790822
-0.075195298 -0.036010701 -0.29394501 10067871
-0.073791496 -0.036010701 -0.29394501 10725801
-0.072448701 -0.036010701 -0.29394501 10659238
-0.071533203 -0.036254901 -0.296143 10594215
-0.070129402 -0.036254901 -0.296143 10660008
-0.068725601 -0.036254901 -0.296143 10725801
-0.067565903 -0.036377002 -0.29711899 10660008
-0.066162102 -0.036377002 -0.29711899 10725801
-0.064758301 -0.036377002 -0.29711899 10594215
-0.063415498 -0.036377002 -0.29711899 10857387
-0.042297401 -0.037475601 -0.30615199 10398634
-0.0409851 -0.037597701 -0.307129 10596013
-0.0396729 -0.0377197 -0.30810499 10333101
-0.0370178 -0.037963901 -0.31005901 10135722
0.041015599 -0.034881599 -0.28491199 10661293
0.052368201 -0.036254901 -0.296143 10792877
0.0539551 -0.036377002 -0.29711899 10792877
0.055328399 -0.036377002 -0.29711899 10595498
0.0567322 -0.036377002 -0.29711899 10595498
0.058136001 -0.036377002 -0.29711899 10529707
0.059936501 -0.036621101 -0.299072 10858670
0.061950698 -0.036987301 -0.30200201 10792877
0.063598603 -0.037109401 -0.30297899 10595498
0.065185502 -0.037231401 -0.30395499 10792877
0.066894501 -0.037353501 -0.30517599 10792877
0.072326697 -0.037963901 -0.31005901 10661293
0.073791496 -0.037963901 -0.31005901 10661293
0.082641602 -0.0328064 -0.267822 10922408
0.083923303 -0.0328064 -0.267822 10856615
0.0852051 -0.0328064 -0.267822 10988201
0.086425804 -0.0328064 -0.267822 10988454
0.102051 -0.033783 -0.275879 11382442
0.102966 -0.0336609 -0.27490199 11448235
0.104248 -0.0336609 -0.27490199 11250603
0.10553 -0.0336609 -0.27490199 11250603
0.106812 -0.0336609 -0.27490199 11250856
0.108521 -0.033783 -0.275879 11119270
0.122375 -0.034393299 -0.28100601 11184806
0.123718 -0.034393299 -0.28100601 11118243
0.12817401 -0.034881599 -0.28491199 11316392
0.14501999 -0.034759499 -0.28393599 11315109
0.14587399 -0.0346375 -0.28295901 11183523
0.14672901 -0.034515399 -0.281982 11380902
0.147461 -0.034393299 -0.28100601 11249316
0.147705 -0.0341492 -0.279053 11249316
0.149048 -0.0341492 -0.279053 11380902
0.14978001 -0.0340271 -0.27807599 11118243
0.15051299 -0.033904999 -0.27685499 11644587
0.15136699 -0.033783 -0.275879 11709097
0.163452 -0.0341492 -0.279053 11052197
0.16540501 -0.034271199 -0.280029 11118760
0.166748 -0.034271199 -0.280029 11380902
0.167969 -0.034271199 -0.280029 11643302
0.169312 -0.034271199 -0.280029 11380384
0.170654 -0.034271199 -0.280029 11381152
0.171997 -0.034271199 -0.280029 11118495
0.17333999 -0.034271199 -0.280029 11315874
0.17395 -0.0341492 -0.279053 11447206
0.175293 -0.0341492 -0.279053 11710378
0.176636 -0.0341492 -0.279053 11579046
0.177856 -0.0341492 -0.279053 11184286
0.179199 -0.0341492 -0.279053 11184286
0.18054201 -0.0341492 -0.279053 11184286
0.182495 -0.034271199 -0.280029 11184538
0.184448 -0.034393299 -0.28100601 11184538
0.18652301 -0.034515399 -0.281982 11184538
0.18981899 -0.034881599 -0.28491199 11184538
0.191772 -0.035003699 -0.285889 11184538
0.193848 -0.035125699 -0.28710899 11184538
0.19519 -0.035125699 -0.28710899 11184538
0.19653299 -0.035125699 -0.28710899 11184538
0.198608 -0.035247799 -0.288086 11184538
0.19995099 -0.035247799 -0.288086 11184538
0.201294 -0.035247799 -0.288086 11184538
0.213745 -0.035766602 -0.29199201 11184538
0.21508799 -0.035766602 -0.29199201 11184538
0.21643101 -0.035766602 -0.29199201 11184538
0.22644 -0.035400402 -0.28906301 11184538
0.22778299 -0.035400402 -0.28906301 11184538
0.22912601 -0.035400402 -0.28906301 11184538
0.230591 -0.035400402 -0.28906301 11184538
0.231079 -0.035247799 -0.288086 11184538
0.23242199 -0.035247799 -0.288086 11184538
0.260254 -0.0328064 -0.267822 11184538
0.261475 -0.0328064 -0.267822 11184538
-0.20422401 -0.038787801 -0.30517599 11775658
-0.203491 -0.038909901 -0.30615199 11578279
-0.20202599 -0.038909901 -0.30615199 11973037
-0.200684 -0.038909901 -0.30615199 12300205
-0.199829 -0.039032001 -0.307129 12037033
-0.19909699 -0.0391846 -0.30810499 12037547
-0.19824199 -0.0393066 -0.309082 12169900
-0.196777 -0.0393066 -0.309082 11644326
-0.19531301 -0.0393066 -0.309082 11775140
-0.19445799 -0.0394287 -0.31005901 11972006
-0.193726 -0.0395508 -0.31103501 11840935
-0.192261 -0.0395508 -0.31103501 11774629
-0.190796 -0.0395508 -0.31103501 11971754
-0.189941 -0.0396729 -0.31201199 11840681
-0.160034 -0.036224399 -0.28491199 11644072
-0.16027801 -0.036621101 -0.288086 11380900
-0.15356401 -0.035980199 -0.28295901 11774888
-0.151611 -0.035858199 -0.281982 11315107
-0.14978001 -0.035736099 -0.28100601 11118241
-0.147949 -0.0355835 -0.280029 11184034
-0.16027801 -0.038909901 -0.30615199 11249568
-0.158813 -0.038909901 -0.30615199 11643556
-0.15685999 -0.038787801 -0.30517599 11511970
-0.152466 -0.038391098 -0.30200201 11512488
-0.151123 -0.038391098 -0.30200201 11315369
-0.14917 -0.038268998 -0.301025 11315369
-0.14721701 -0.038146999 -0.30004901 11117990
-0.145386 -0.038024899 -0.299072 11249829
-0.143921 -0.038024899 -0.299072 11447208
-0.14257801 -0.038024899 -0.299072 11249829
-0.140625 -0.037902799 -0.298096 11315622
-0.139282 -0.037902799 -0.298096 10986657
-0.137817 -0.037902799 -0.298096 11249827
-0.136475 -0.037902799 -0.298096 11184034
-0.135132 -0.037902799 -0.298096 11184034
-0.13366701 -0.037902799 -0.298096 11249827
-0.132324 -0.037902799 -0.298096 11447206
-0.131348 -0.038024899 -0.299072 11053218
-0.125488 -0.036743201 -0.28906301 11316392
-0.122864 -0.036743201 -0.28906301 11053224
-0.121887 -0.036865201 -0.290039 11250603
-0.120972 -0.036987301 -0.29101601 10855845
-0.119202 -0.036865201 -0.290039 11119017
-0.117798 -0.036865201 -0.290039 11250603
-0.116455 -0.036865201 -0.290039 11119017
-0.115112 -0.036865201 -0.290039 11119017
-0.114136 -0.036987301 -0.29101601 11119270
-0.112732 -0.036987301 -0.29101601 10791075
-0.111755 -0.0371399 -0.29199201 11053477
-0.0829468 -0.034820601 -0.27392599 10396836
-0.081054702 -0.034576401 -0.27197301 10660521
-0.079772897 -0.034576401 -0.27197301 10660006
-0.077636696 -0.0353394 -0.27807599 10528420
-0.075805701 -0.035736099 -0.28100601 10660521
-0.074523903 -0.035736099 -0.28100601 10726314
-0.0734253 -0.035858199 -0.281982 10331556
-0.072082497 -0.035858199 -0.281982 10528935
-0.073791496 -0.037384 -0.29394501 10594728
-0.072448701 -0.037384 -0.29394501 10396836
-0.0712891 -0.0375061 -0.29492199 10528422
-0.070129402 -0.0376282 -0.296143 10528422
-0.068725601 -0.0376282 -0.296143 10725801
-0.0673218 -0.0376282 -0.296143 10594213
-0.066162102 -0.037780799 -0.29711899 10660008
-0.064758301 -0.037780799 -0.29711899 10725801
0.0396729 -0.036224399 -0.28491199 10859183
0.041015599 -0.036224399 -0.28491199 10792877
0.058136001 -0.037780799 -0.29711899 10923693
0.0597229 -0.037902799 -0.298096 10923693
0.061340299 -0.038024899 -0.299072 10792879
0.062927201 -0.038146999 -0.30004901 10661293
0.082641602 -0.034057599 -0.267822 10923693
0.083923303 -0.034057599 -0.267822 10857385
0.0852051 -0.034057599 -0.267822 10988971
0.086425804 -0.034057599 -0.267822 11120557
0.101624 -0.0349731 -0.27490199 10987174
0.102966 -0.0349731 -0.27490199 10987174
0.104248 -0.0349731 -0.27490199 10987174
0.105164 -0.034820601 -0.27392599 10987427
0.106445 -0.034820601 -0.27392599 11053220
0.14563 -0.0355835 -0.280029 12104877
0.146973 -0.0355835 -0.280029 11710119
0.147705 -0.0354614 -0.279053 11710119
0.14856 -0.0353394 -0.27807599 11776171
0.14929201 -0.0352173 -0.27685499 11644587
0.150024 -0.0350952 -0.275879 11380902
0.15136699 -0.0350952 -0.275879 11644072
0.149902 -0.034454301 -0.270996 11644074
0.15051299 -0.034332301 -0.27002001 11578279
0.163452 -0.0354614 -0.279053 11644334
0.16540501 -0.0355835 -0.280029 11447978
0.166748 -0.0355835 -0.280029 11383212
0.167969 -0.0355835 -0.280029 11316396
0.169312 -0.0355835 -0.280029 11316139
0.170654 -0.0355835 -0.280029 11118243
0.171997 -0.0355835 -0.280029 11447978
0.172607 -0.0354614 -0.279053 11382185
0.17395 -0.0354614 -0.279053 11644839
0.175293 -0.0354614 -0.279053 11512740
0.176636 -0.0354614 -0.279053 11578279
0.177246 -0.0353394 -0.27807599 11774888
0.178589 -0.0353394 -0.27807599 11774888
0.18054201 -0.0354614 -0.279053 11774888
0.181885 -0.0354614 -0.279053 11774888
0.18310501 -0.0354614 -0.279053 11774888
0.184448 -0.0354614 -0.279053 11774888
0.19665501 -0.0332947 -0.26196301 11774888
0.19787601 -0.0332947 -0.26196301 11774888
0.19909699 -0.0332947 -0.26196301 11774888
0.200317 -0.0332947 -0.26196301 11774888
0.202271 -0.0334167 -0.26293901 11774888
0.202759 -0.0332947 -0.26196301 11774888
0.256836 -0.033935498 -0.266846 11906728
0.25903299 -0.034057599 -0.267822 11906728
0.260254 -0.034057599 -0.267822 11906728
0.261475 -0.034057599 -0.267822 11906728
-0.203613 -0.040100101 -0.30395499 11774375
-0.20288099 -0.040222201 -0.30517599 11774888
-0.201416 -0.040222201 -0.30517599 11840681
-0.200684 -0.040344201 -0.30615199 11643304
-0.199219 -0.040344201 -0.30615199 11709097
-0.198364 -0.0404968 -0.307129 11445923
-0.196899 -0.0404968 -0.307129 11840681
-0.195557 -0.0404968 -0.307129 11578279
-0.193848 -0.040741 -0.309082 11841705
-0.171143 -0.0365295 -0.27685499 11643556
-0.1698 -0.0365295 -0.27685499 11381154
-0.168457 -0.0365295 -0.27685499 11644326
-0.167236 -0.0365295 -0.27685499 11775912
-0.165894 -0.0365295 -0.27685499 11380900
-0.164551 -0.0365295 -0.27685499 11512486
-0.16394 -0.0366516 -0.27807599 11511716
-0.16320799 -0.0367737 -0.279053 11840681
-0.161865 -0.0367737 -0.279053 11643556
-0.16113301 -0.036926299 -0.280029 11775142
-0.1604 -0.037048299 -0.28100601 11643556
-0.159668 -0.037170399 -0.281982 11578533
-0.158813 -0.037323002 -0.28295901 11249568
-0.157593 -0.037323002 -0.28295901 11315361
-0.15564001 -0.037170399 -0.281982 11183775
-0.15429699 -0.037170399 -0.281982 11380384
-0.152466 -0.037048299 -0.28100601 11314337
-0.151123 -0.037048299 -0.28100601 10920349
-0.14978001 -0.037048299 -0.28100601 11184036
-0.145264 -0.036926299 -0.280029 11118243
-0.143433 -0.0393066 -0.298096 11052450
-0.14208999 -0.0393066 -0.298096 10855841
-0.140625 -0.0393066 -0.298096 11184036
-0.139282 -0.0393066 -0.298096 11118243
-0.13745099 -0.039154101 -0.29711899 10855069
-0.135986 -0.039154101 -0.29711899 10986655
-0.134644 -0.039154101 -0.29711899 11118241
-0.13317899 -0.039154101 -0.29711899 11118241
-0.131836 -0.039154101 -0.29711899 10921632
-0.125122 -0.037963901 -0.288086 10987684
-0.124207 -0.0381165 -0.28906301 10987431
-0.122864 -0.0381165 -0.28906301 10855845
-0.121521 -0.0381165 -0.28906301 10988201
-0.120117 -0.0381165 -0.28906301 10790822
-0.118774 -0.0381165 -0.28906301 10987431
-0.117798 -0.038238499 -0.290039 10790054
-0.116455 -0.038238499 -0.290039 10790054
-0.115112 -0.038238499 -0.290039 10855845
-0.113708 -0.038238499 -0.290039 11250603
-0.112366 -0.038238499 -0.290039 11053224
-0.111755 -0.038513198 -0.29199201 10987433
-0.083007798 -0.035064701 -0.26586899 10660008
-0.0820923 -0.035186801 -0.266846 10396836
-0.0811157 -0.0353394 -0.267822 10528422
-0.080444299 -0.0355835 -0.27002001 10330273
-0.079162598 -0.0355835 -0.27002001 10461859
-0.078491203 -0.035858199 -0.27197301 10659238
-0.077514596 -0.035980199 -0.27294901 10659238
-0.077087402 -0.036377002 -0.275879 10264480
-0.075195298 -0.036132801 -0.27392599 10528422
-0.073669396 -0.035980199 -0.27294901 10331043
-0.072387703 -0.035980199 -0.27294901 10265763
-0.071106002 -0.035980199 -0.27294901 10331556
-0.069518998 -0.035858199 -0.27197301 10003363
-0.068542503 -0.035980199 -0.27294901 10398121
-0.067260697 -0.035980199 -0.27294901 10332328
-0.062103301 -0.035980199 -0.27294901 10660523
-0.0610657 -0.036132801 -0.27392599 10594730
-0.033477802 -0.0355835 -0.27002001 10398634
-0.032348599 -0.035736099 -0.270996 10398634
-0.0310669 -0.035736099 -0.270996 10464427
-0.0298004 -0.035736099 -0.270996 10201769
0.0396729 -0.037567101 -0.28491199 11188148
0.041015599 -0.037567101 -0.28491199 11056562
0.082641602 -0.0353394 -0.267822 10988971
0.083923303 -0.0353394 -0.267822 10988201
0.0852051 -0.0353394 -0.267822 10988454
0.086425804 -0.0353394 -0.267822 11514028
0.100342 -0.036254901 -0.27490199 11580589
0.101624 -0.036254901 -0.27490199 11712175
0.1026 -0.036132801 -0.27392599 11646382
0.103882 -0.036132801 -0.27392599 11712175
0.105164 -0.036132801 -0.27392599 11317417
0.106445 -0.036132801 -0.27392599 11383210
0.148682 -0.036377002 -0.275879 11644334
0.150024 -0.036377002 -0.275879 11776173
0.14636201 -0.035186801 -0.266846 11644587
0.14709499 -0.035064701 -0.26586899 11776173
0.14721701 -0.034790002 -0.26391599 12038832
0.150391 -0.034667999 -0.26293901 11841451
0.15222199 -0.034790002 -0.26391599 11841451
0.153442 -0.034790002 -0.26391599 11447208
0.15820301 -0.0355835 -0.27002001 11381934
0.154175 -0.034118701 -0.258789 11645106
0.15478501 -0.033996601 -0.25781301 11447725
0.15600599 -0.033996601 -0.25781301 11382189
0.170654 -0.036926299 -0.280029 11382189
0.171997 -0.036926299 -0.280029 11711154
0.172607 -0.0367737 -0.279053 11974069
0.17395 -0.0367737 -0.279053 11644587
0.175293 -0.0367737 -0.279053 11447976
0.17590301 -0.0366516 -0.27807599 11184804
0.177246 -0.0366516 -0.27807599 11578792
0.178589 -0.0366516 -0.27807599 11578792
0.179932 -0.0366516 -0.27807599 11578792
0.181152 -0.0366516 -0.27807599 11578792
0.18310501 -0.0367737 -0.279053 11578792
0.18383799 -0.0366516 -0.27807599 11578792
0.184448 -0.0365295 -0.27685499 11578792
0.18005399 -0.033721901 -0.25585899 11578792
0.181274 -0.033721901 -0.25585899 11578792
0.182495 -0.033721901 -0.25585899 11578792
0.18432599 -0.033874501 -0.256836 11578792
0.193115 -0.034790002 -0.26391599 11578792
0.19531301 -0.034545898 -0.26196301 11578792
0.19665501 -0.034545898 -0.26196301 11578792
0.19787601 -0.034545898 -0.26196301 11578792
0.19824199 -0.034393299 -0.260986 11578792
0.19958501 -0.034393299 -0.260986 11578792
0.19995099 -0.034271199 -0.26001 11578792
0.20117199 -0.034271199 -0.26001 11578792
0.20166001 -0.034118701 -0.258789 11578792
0.20288099 -0.034118701 -0.258789 11578792
0.20410199 -0.034118701 -0.258789 11578792
0.204956 -0.033874501 -0.256836 11578792
0.206177 -0.033874501 -0.256836 11578792
0.207275 -0.033874501 -0.256836 11578792
0.208496 -0.033874501 -0.256836 11578792
0.20971701 -0.033874501 -0.256836 11578792
0.21093801 -0.033874501 -0.256836 11578792
0.21215799 -0.033874501 -0.256836 11578792
0.212524 -0.033721901 -0.25585899 11578792
0.213745 -0.033721901 -0.25585899 11578792
0.214111 -0.033599898 -0.25488299 11578792
0.216187 -0.033721901 -0.25585899 11578792
0.216553 -0.033599898 -0.25488299 11578792
0.21850599 -0.033721901 -0.25585899 11578792
0.230591 -0.033721901 -0.25585899 11578792
0.231812 -0.033721901 -0.25585899 11578792
0.233032 -0.033721901 -0.25585899 11578792
0.256836 -0.035186801 -0.266846 11578792
0.25903299 -0.0353394 -0.267822 11578792
0.260254 -0.0353394 -0.267822 11578792
0.261475 -0.0353394 -0.267822 11578792
-0.187134 -0.036865201 -0.27002001 11578533
-0.185791 -0.036865201 -0.27002001 11511203
-0.18457 -0.036865201 -0.27002001 11905961
-0.182007 -0.036865201 -0.27002001 11840683
-0.203613 -0.041534401 -0.30395499 11511205
-0.20214801 -0.041534401 -0.30395499 11906476
-0.201416 -0.041656502 -0.30517599 11708836
-0.19995099 -0.041656502 -0.30517599 11709349
-0.199219 -0.041809101 -0.30615199 11644072
-0.171143 -0.037811302 -0.27685499 11709349
-0.1698 -0.037811302 -0.27685499 11643556
-0.168457 -0.037811302 -0.27685499 11643302
-0.167236 -0.037811302 -0.27685499 11315107
-0.165894 -0.037811302 -0.27685499 11512486
-0.164551 -0.037811302 -0.27685499 11512488
-0.16394 -0.037963901 -0.27807599 11513001
-0.162598 -0.037963901 -0.27807599 11513001
-0.161865 -0.0380859 -0.279053 11315622
-0.16113301 -0.038238499 -0.280029 11512999
-0.15978999 -0.038238499 -0.280029 11644072
-0.159058 -0.038360599 -0.28100601 11117728
-0.158325 -0.038513198 -0.281982 11249314
-0.156982 -0.038513198 -0.281982 11183775
-0.15564001 -0.038513198 -0.281982 11381154
-0.15429699 -0.038513198 -0.281982 11315361
-0.152466 -0.038360599 -0.28100601 11380384
-0.151123 -0.038360599 -0.28100601 11709095
-0.14978001 -0.038360599 -0.28100601 11183521
-0.147949 -0.038238499 -0.280029 11118241
-0.146606 -0.038238499 -0.280029 11315622
-0.145264 -0.038238499 -0.280029 11053220
-0.13745099 -0.040557899 -0.29711899 10855841
-0.135986 -0.040557899 -0.29711899 11118243
-0.134644 -0.040557899 -0.29711899 11249576
-0.131836 -0.040161099 -0.29394501 11118760
-0.123779 -0.039337199 -0.288086 11250603
-0.122437 -0.039337199 -0.288086 10987431
-0.120667 -0.0391846 -0.28710899 10987431
-0.11969 -0.039337199 -0.288086 11316396
-0.118774 -0.039459199 -0.28906301 11119787
-0.117004 -0.039337199 -0.288086 10988201
-0.116028 -0.039459199 -0.28906301 11119017
-0.114685 -0.039459199 -0.28906301 11316396
-0.113708 -0.039611802 -0.290039 11119017
-0.112366 -0.039611802 -0.290039 10921638
-0.083618201 -0.036041301 -0.26391599 10396834
-0.082702599 -0.0361633 -0.264893 10660006
-0.081787102 -0.036315899 -0.26586899 10265250
-0.080505401 -0.036315899 -0.26586899 10527652
-0.079589799 -0.036437999 -0.266846 10856617
-0.078308098 -0.036437999 -0.266846 10659238
-0.077331498 -0.036590599 -0.267822 10725031
-0.076049797 -0.036590599 -0.267822 10790824
-0.0744019 -0.036987301 -0.270996 10594215
-0.073364303 -0.0371399 -0.27197301 10660008
-0.072082497 -0.0371399 -0.27197301 10396838
-0.070800804 -0.0371399 -0.27197301 10463142
-0.069518998 -0.0371399 -0.27197301 10528935
-0.0654907 -0.036987301 -0.270996 10463142
-0.064208999 -0.036987301 -0.270996 10331556
-0.062927201 -0.036987301 -0.270996 10528937
-0.0618896 -0.0371399 -0.27197301 10528937
-0.0608215 -0.037262 -0.27294901 10594730
-0.035766602 -0.036590599 -0.267822 10398634
-0.0346375 -0.036712602 -0.269043 10134949
-0.033477802 -0.036865201 -0.27002001 10003363
-0.0322266 -0.036865201 -0.27002001 9938083
-0.0309601 -0.036865201 -0.27002001 10135462
-0.029129 -0.0361633 -0.264893 9741218
-0.0277863 -0.036041301 -0.26391599 9806757
-0.0264435 -0.035888702 -0.26293901 9938597
-0.025207501 -0.035888702 -0.26293901 10267048
0.082641602 -0.036590599 -0.267822 11317166
0.083923303 -0.036590599 -0.267822 11448752
0.0852051 -0.036590599 -0.267822 11449005
0.0928955 -0.0352173 -0.25781301 11447978
0.094116203 -0.0352173 -0.25781301 11447976
0.094970703 -0.035064701 -0.256836 11579564
0.096191399 -0.035064701 -0.256836 11776941
0.096984901 -0.034942601 -0.25585899 11119268
0.098205604 -0.034942601 -0.25585899 11382440
0.098999001 -0.034790002 -0.25488299 11382440
0.099853501 -0.034667999 -0.25390601 11316392
0.115051 -0.034942601 -0.25585899 11578279
0.13159201 -0.0361633 -0.264893 11119268
0.141357 -0.0352173 -0.25781301 11447978
0.14257801 -0.0352173 -0.25781301 11841453
0.14379901 -0.0352173 -0.25781301 11775658
0.14501999 -0.0352173 -0.25781301 11644074
0.14624 -0.0352173 -0.25781301 11776943
0.151733 -0.035064701 -0.256836 11645357
0.15356401 -0.0352173 -0.25781301 11118760
0.15478501 -0.0352173 -0.25781301 11579564
0.15600599 -0.0352173 -0.25781301 11513771
0.156616 -0.035064701 -0.256836 11842734
0.16870099 -0.034118701 -0.249878 11249827
0.17504901 -0.034667999 -0.25390601 11249827
0.17553701 -0.034515399 -0.25292999 11249827
0.17749 -0.034667999 -0.25390601 11249827
0.17932101 -0.034790002 -0.25488299 11249827
0.18054201 -0.034790002 -0.25488299 11249827
0.18176299 -0.034790002 -0.25488299 11249827
0.182983 -0.034790002 -0.25488299 11249827
0.18261699 -0.034515399 -0.25292999 11249827
0.18457 -0.034667999 -0.25390601 11249827
0.18652301 -0.034790002 -0.25488299 11249827
0.18774401 -0.034790002 -0.25488299 11249827
0.193359 -0.035613999 -0.260986 11249827
0.193848 -0.035491899 -0.26001 11249827
0.195068 -0.035491899 -0.26001 11249827
0.19702099 -0.035613999 -0.260986 11249827
0.19824199 -0.035613999 -0.260986 11249827
0.19873001 -0.035491899 -0.26001 11249827
0.19995099 -0.035491899 -0.26001 11249827
0.20043901 -0.0353394 -0.258789 11249827
0.20166001 -0.0353394 -0.258789 11249827
0.20288099 -0.0353394 -0.258789 11249827
0.203247 -0.0352173 -0.25781301 11249827
0.204468 -0.0352173 -0.25781301 11249827
0.204956 -0.035064701 -0.256836 11249827
0.206177 -0.035064701 -0.256836 11249827
0.206543 -0.034942601 -0.25585899 11249827
0.207764 -0.034942601 -0.25585899 11249827
0.208984 -0.034942601 -0.25585899 11249827
0.21008299 -0.034942601 -0.25585899 11249827
0.21130399 -0.034942601 -0.25585899 11249827
0.21167 -0.034790002 -0.25488299 11249827
0.212891 -0.034790002 -0.25488299 11249827
0.214111 -0.034790002 -0.25488299 11249827
0.215332 -0.034790002 -0.25488299 11249827
0.216553 -0.034790002 -0.25488299 11249827
0.21850599 -0.034942601 -0.25585899 11249827
0.218872 -0.034790002 -0.25488299 11249827
0.220093 -0.034790002 -0.25488299 11249827
0.23083501 -0.034790002 -0.25488299 11249827
0.23205601 -0.034790002 -0.25488299 11249827
0.23327599 -0.034790002 -0.25488299 11249827
0.232178 -0.033447299 -0.244873 11249827
0.25903299 -0.036590599 -0.267822 11249827
0.260254 -0.036590599 -0.267822 11249827
0.261475 -0.036590599 -0.267822 11249827
-0.187622 -0.0379944 -0.269043 11579046
-0.18640099 -0.0379944 -0.269043 11644326
-0.18518101 -0.0379944 -0.269043 11775660
-0.18383799 -0.0379944 -0.269043 11774890
-0.18261699 -0.0379944 -0.269043 11709097
-0.172363 -0.039123502 -0.27685499 11840683
-0.171143 -0.039123502 -0.27685499 11774890
-0.1698 -0.039123502 -0.27685499 11643304
-0.168457 -0.039123502 -0.27685499 11709867
-0.167236 -0.039123502 -0.27685499 11578281
-0.165894 -0.039123502 -0.27685499 11380902
-0.164551 -0.039123502 -0.27685499 11249576
-0.16394 -0.039276101 -0.27807599 11579311
-0.162598 -0.039276101 -0.27807599 11315622
-0.161865 -0.039398201 -0.279053 11644074
-0.160522 -0.039398201 -0.279053 11249829
-0.15978999 -0.0395508 -0.280029 11315109
-0.159058 -0.039703399 -0.28100601 11183521
-0.15771499 -0.039703399 -0.28100601 11183521
-0.156982 -0.039825398 -0.281982 11117728
-0.15515099 -0.039703399 -0.28100601 11315620
-0.153809 -0.039703399 -0.28100601 11051935
-0.152466 -0.039703399 -0.28100601 11183521
-0.151123 -0.039703399 -0.28100601 11249827
-0.14978001 -0.039703399 -0.28100601 11249314
-0.147949 -0.0395508 -0.280029 11315361
-0.146606 -0.0395508 -0.280029 11183521
-0.145264 -0.0395508 -0.280029 11249314
-0.084899902 -0.037292499 -0.26391599 10528422
-0.083313003 -0.0371399 -0.26293901 10594215
-0.082397498 -0.037292499 -0.26391599 10528422
-0.081176803 -0.037292499 -0.26391599 10198687
-0.080200203 -0.037414599 -0.264893 10396066
-0.079284698 -0.037567101 -0.26586899 10265250
-0.0780029 -0.037567101 -0.26586899 10133664
-0.077026397 -0.037689202 -0.266846 10396836
-0.075805701 -0.037689202 -0.266846 10331556
-0.074829102 -0.037841801 -0.267822 10463142
-0.074096702 -0.0381165 -0.27002001 10594730
-0.073120102 -0.038268998 -0.270996 10594730
-0.071838401 -0.038268998 -0.270996 10331558
-0.070556603 -0.038268998 -0.270996 10331556
-0.069274902 -0.038268998 -0.270996 10463142
-0.067749001 -0.0381165 -0.27002001 10265765
-0.0664673 -0.0381165 -0.27002001 10528937
-0.065246597 -0.0381165 -0.27002001 10463144
-0.064208999 -0.038268998 -0.270996 10726314
-0.062927201 -0.038268998 -0.270996 10660521
-0.0618896 -0.038421601 -0.27197301 10726314
-0.0608215 -0.038543701 -0.27294901 10528935
-0.033233602 -0.037841801 -0.267822 10398634
-0.0321045 -0.0379944 -0.269043 10727599
-0.030609099 -0.037689202 -0.266846 10596013
-0.029129 -0.037414599 -0.264893 10464427
-0.027679401 -0.0371399 -0.26293901 10267562
-0.0264435 -0.0371399 -0.26293901 10268078
-0.025116 -0.036987301 -0.26196301 10268078
-0.023696899 -0.036712602 -0.26001 10596273
0.0430298 -0.0362854 -0.256836 11121842
0.044220001 -0.0362854 -0.256836 11055279
0.0454407 -0.0362854 -0.256836 10989484
0.0733032 -0.035156298 -0.24890099 11251626
0.074462898 -0.035156298 -0.24890099 11383212
0.075622603 -0.035156298 -0.24890099 11185833
0.076782197 -0.035156298 -0.24890099 11251373
0.077636696 -0.035003699 -0.247925 11185580
0.078796402 -0.035003699 -0.247925 11448752
0.079956099 -0.035003699 -0.247925 11317166
0.092529297 -0.0362854 -0.256836 11447206
0.09375 -0.0362854 -0.256836 11578792
0.094970703 -0.0362854 -0.256836 11907757
0.096191399 -0.0362854 -0.256836 11645355
0.096984901 -0.036132801 -0.25585899 11447976
0.0978394 -0.036010701 -0.25488299 11776941
0.098999001 -0.036010701 -0.25488299 11382442
0.099853501 -0.035858199 -0.25390601 11447976
0.12609901 -0.035858199 -0.25390601 11184806
0.12731899 -0.035858199 -0.25390601 11776941
0.141357 -0.036437999 -0.25781301 11775920
0.14257801 -0.036437999 -0.25781301 11906476
0.14379901 -0.036437999 -0.25781301 11972267
0.14501999 -0.036437999 -0.25781301 11972267
0.14624 -0.036437999 -0.25781301 11644072
0.151733 -0.0362854 -0.256836 11643556
0.152954 -0.0362854 -0.256836 11513001
0.154175 -0.0362854 -0.256836 11643304
0.155396 -0.0362854 -0.256836 11379366
0.15600599 -0.036132801 -0.25585899 11774124
0.15649401 -0.036010701 -0.25488299 11841451
0.157104 -0.035858199 -0.25390601 11578792
0.16687 -0.035156298 -0.24890099 11579046
0.168091 -0.035156298 -0.24890099 11579046
0.16918901 -0.035156298 -0.24890099 11579046
0.17041001 -0.035156298 -0.24890099 11579046
0.17089801 -0.035003699 -0.247925 11579046
0.17626999 -0.035858199 -0.25390601 11579046
0.178101 -0.036010701 -0.25488299 11579046
0.17797901 -0.0357056 -0.25292999 11579046
0.17981 -0.035858199 -0.25390601 11579046
0.180298 -0.0357056 -0.25292999 11579046
0.18005399 -0.035430901 -0.25097701 11579046
0.18054201 -0.035278302 -0.249878 11579046
0.181641 -0.035278302 -0.249878 11579046
0.182129 -0.035156298 -0.24890099 11579046
0.182495 -0.035003699 -0.247925 11579046
0.194336 -0.0365601 -0.258789 11579046
0.195557 -0.0365601 -0.258789 11579046
0.196777 -0.0365601 -0.258789 11579046
0.19873001 -0.036712602 -0.26001 11579046
0.199219 -0.0365601 -0.258789 11579046
0.20043901 -0.0365601 -0.258789 11579046
0.20166001 -0.0365601 -0.258789 11579046
0.20288099 -0.0365601 -0.258789 11579046
0.203247 -0.036437999 -0.25781301 11579046
0.204468 -0.036437999 -0.25781301 11579046
0.204956 -0.0362854 -0.256836 11579046
0.205322 -0.036132801 -0.25585899 11579046
0.206543 -0.036132801 -0.25585899 11579046
0.206909 -0.036010701 -0.25488299 11579046
0.20813 -0.036010701 -0.25488299 11579046
0.208496 -0.035858199 -0.25390601 11579046
0.20971701 -0.035858199 -0.25390601 11579046
0.21008299 -0.0357056 -0.25292999 11579046
0.212036 -0.035858199 -0.25390601 11579046
0.213257 -0.035858199 -0.25390601 11579046
0.214478 -0.035858199 -0.25390601 11579046
0.215698 -0.035858199 -0.25390601 11579046
0.21765099 -0.036010701 -0.25488299 11579046
0.218872 -0.036010701 -0.25488299 11579046
0.220093 -0.036010701 -0.25488299 11579046
0.23083501 -0.036010701 -0.25488299 11579046
0.23205601 -0.036010701 -0.25488299 11579046
0.23242199 -0.035858199 -0.25390601 11579046
0.22876 -0.034576401 -0.244873 11579046
0.229858 -0.034576401 -0.244873 11579046
0.230103 -0.034454301 -0.24389599 11579046
0.232178 -0.034576401 -0.244873 11579046
0.23327599 -0.034576401 -0.244873 11579046
0.234497 -0.034576401 -0.244873 11579046
0.235596 -0.034576401 -0.244873 11579046
0.237793 -0.034729 -0.24585 11579046
0.238892 -0.034729 -0.24585 11579046
-0.19787601 -0.038513198 -0.26391599 11380649
-0.19458 -0.038360599 -0.26293901 11708331
-0.195801 -0.039092999 -0.267822 11513001
-0.187622 -0.039245602 -0.269043 11315620
-0.18640099 -0.039245602 -0.269043 11578279
-0.18518101 -0.039245602 -0.269043 11315620
-0.18383799 -0.039245602 -0.269043 11183523
-0.18261699 -0.039245602 -0.269043 11249316
-0.18139599 -0.039245602 -0.269043 11511718
-0.18005399 -0.039245602 -0.269043 11511716
-0.172363 -0.040435798 -0.27685499 11512488
-0.171143 -0.040435798 -0.27685499 11249316
-0.1698 -0.040435798 -0.27685499 11578281
-0.168457 -0.040435798 -0.27685499 11644074
-0.167236 -0.040435798 -0.27685499 11578281
-0.165894 -0.040435798 -0.27685499 11380902
-0.164551 -0.040435798 -0.27685499 11249576
-0.16333 -0.040435798 -0.27685499 11513001
-0.162598 -0.040557899 -0.27807599 11249316
-0.161255 -0.040557899 -0.27807599 11709867
-0.160522 -0.040710401 -0.279053 11315109
-0.15978999 -0.040863 -0.280029 11445923
-0.158447 -0.040863 -0.280029 11380130
-0.15722699 -0.040863 -0.280029 11511716
-0.15527301 -0.040710401 -0.279053 11052448
-0.154541 -0.040863 -0.280029 11447206
-0.153198 -0.040863 -0.280029 11512486
-0.15185501 -0.040863 -0.280029 11380902
-0.150635 -0.040863 -0.280029 11380902
-0.14929201 -0.040863 -0.280029 11315109
-0.147949 -0.040863 -0.280029 11644074
-0.12988301 -0.037200902 -0.25488299 10921634
-0.12866201 -0.037200902 -0.25488299 11052967
-0.127441 -0.037200902 -0.25488299 10987174
-0.126343 -0.037200902 -0.25488299 11184553
-0.084777802 -0.037933301 -0.26001 10659236
-0.083923303 -0.0380859 -0.260986 10527650
-0.083007798 -0.038238499 -0.26196301 10790822
-0.0820923 -0.038360599 -0.26293901 10922410
-0.080810502 -0.038360599 -0.26293901 11119789
-0.079894997 -0.038513198 -0.26391599 10922410
-0.0789795 -0.038665801 -0.264893 10659238
-0.077697799 -0.038665801 -0.264893 10396066
-0.076782197 -0.0388184 -0.26586899 10265250
-0.075805701 -0.038970899 -0.266846 10331043
-0.074829102 -0.039092999 -0.267822 10396836
-0.073852502 -0.039245602 -0.269043 10396836
-0.072814897 -0.039398201 -0.27002001 10331556
-0.071594201 -0.039398201 -0.27002001 10331556
-0.0703125 -0.039398201 -0.27002001 10594728
-0.069030799 -0.039398201 -0.27002001 10396836
-0.067749001 -0.039398201 -0.27002001 10791594
-0.0664673 -0.039398201 -0.27002001 10660008
-0.065246597 -0.039398201 -0.27002001 10594215
-0.063964799 -0.039398201 -0.27002001 10792107
-0.062927201 -0.0395508 -0.270996 10923693
-0.0616455 -0.0395508 -0.270996 10989486
-0.0404968 -0.0376282 -0.25781301 10332841
-0.039276101 -0.0376282 -0.25781301 10003876
-0.0290222 -0.038513198 -0.26391599 9741218
-0.0275726 -0.038238499 -0.26196301 10004136
-0.0262451 -0.0380859 -0.260986 10004136
-0.0250092 -0.0380859 -0.260986 10135722
-0.023696899 -0.037933301 -0.26001 10333355
0.042846698 -0.037353501 -0.25585899 10990256
0.044067401 -0.037353501 -0.25585899 11252658
0.0450745 -0.037200902 -0.25488299 11186865
0.0462952 -0.037200902 -0.25488299 11121072
0.067749001 -0.035888702 -0.24585 11185580
0.069213897 -0.036041301 -0.246948 11251373
0.070373498 -0.036041301 -0.246948 11580338
0.071838401 -0.0361633 -0.247925 11646384
0.072998002 -0.0361633 -0.247925 11580591
0.074462898 -0.036315899 -0.24890099 11908786
0.075317398 -0.0361633 -0.247925 11514028
0.076477103 -0.0361633 -0.247925 11185833
0.077636696 -0.0361633 -0.247925 11119787
0.078491203 -0.036041301 -0.246948 11185580
0.079650901 -0.036041301 -0.246948 10988201
0.080810502 -0.036041301 -0.246948 11382189
0.081665002 -0.035888702 -0.24585 11579568
0.0828247 -0.035888702 -0.24585 11579311
0.083923303 -0.035888702 -0.24585 11382185
0.0899048 -0.0368958 -0.25292999 11447976
0.092529297 -0.0375061 -0.256836 11644585
0.09375 -0.0375061 -0.256836 11447206
0.094970703 -0.0375061 -0.256836 11316390
0.095825203 -0.037353501 -0.25585899 11184804
0.096984901 -0.037353501 -0.25585899 11382440
0.0978394 -0.037200902 -0.25488299 11119268
0.098999001 -0.037200902 -0.25488299 11184804
0.099853501 -0.037048299 -0.25390601 11316901
0.101013 -0.037048299 -0.25390601 11776425
0.141357 -0.0376282 -0.25781301 11973552
0.14257801 -0.0376282 -0.25781301 12170931
0.14379901 -0.0376282 -0.25781301 12236722
0.14501999 -0.0376282 -0.25781301 11973550
0.14624 -0.0376282 -0.25781301 12104625
0.151733 -0.0375061 -0.256836 11908011
0.152954 -0.0375061 -0.256836 11579562
0.154175 -0.0375061 -0.256836 11973550
0.15478501 -0.037353501 -0.25585899 11709865
0.15600599 -0.037353501 -0.25585899 11972521
0.15649401 -0.037200902 -0.25488299 11972521
0.157104 -0.037048299 -0.25390601 11906474
0.16687 -0.036315899 -0.24890099 11907757
0.167358 -0.0361633 -0.247925 11907757
0.168579 -0.0361633 -0.247925 11907757
0.169678 -0.0361633 -0.247925 11907757
0.170166 -0.036041301 -0.246948 11907757
0.17395 -0.036315899 -0.24890099 11907757
0.178589 -0.037048299 -0.25390601 11907757
0.179077 -0.0368958 -0.25292999 11907757
0.178101 -0.036468498 -0.249878 11907757
0.17932101 -0.036468498 -0.249878 11907757
0.17981 -0.036315899 -0.24890099 11907757
0.18090799 -0.036315899 -0.24890099 11907757
0.182129 -0.036315899 -0.24890099 11907757
0.182495 -0.0361633 -0.247925 11907757
0.183716 -0.0361633 -0.247925 11907757
0.196777 -0.037780799 -0.258789 11907757
0.197998 -0.037780799 -0.258789 11907757
0.199219 -0.037780799 -0.258789 11907757
0.20043901 -0.037780799 -0.258789 11907757
0.20080601 -0.0376282 -0.25781301 11907757
0.203247 -0.0376282 -0.25781301 11907757
0.20373499 -0.0375061 -0.256836 11907757
0.204956 -0.0375061 -0.256836 11907757
0.206055 -0.037048299 -0.25390601 11907757
0.207275 -0.037048299 -0.25390601 11907757
0.208496 -0.037048299 -0.25390601 11907757
0.20800801 -0.0367737 -0.25195301 11907757
0.21008299 -0.0368958 -0.25292999 11907757
0.211182 -0.0368958 -0.25292999 11907757
0.213257 -0.037048299 -0.25390601 11907757
0.213623 -0.0368958 -0.25292999 11907757
0.215698 -0.037048299 -0.25390601 11907757
0.218018 -0.037048299 -0.25390601 11907757
0.21167 -0.035003699 -0.239868 11907757
0.214478 -0.035308801 -0.241943 11907757
0.215698 -0.035308801 -0.241943 11907757
0.21679699 -0.035308801 -0.241943 11907757
0.22692899 -0.0367737 -0.25195301 11907757
0.22998001 -0.037048299 -0.25390601 11907757
0.23120099 -0.037048299 -0.25390601 11907757
0.231445 -0.0368958 -0.25292999 11907757
0.228027 -0.0361633 -0.247925 11907757
0.227295 -0.035888702 -0.24585 11907757
0.227539 -0.035736099 -0.244873 11907757
0.22876 -0.035736099 -0.244873 11907757
0.228882 -0.0355835 -0.24389599 11907757
0.230103 -0.0355835 -0.24389599 11907757
0.23120099 -0.0355835 -0.24389599 11907757
0.23327599 -0.035736099 -0.244873 11907757
0.234497 -0.035736099 -0.244873 11907757
0.235596 -0.035736099 -0.244873 11907757
0.237793 -0.035888702 -0.24585 11907757
0.238892 -0.035888702 -0.24585 11907757
0.24011201 -0.035888702 -0.24585 11907757
0.241211 -0.035888702 -0.24585 11907757
0.24340799 -0.036041301 -0.246948 11907757
-0.19873001 -0.039459199 -0.26196301 11840420
-0.19751 -0.039459199 -0.26196301 11840168
-0.196289 -0.039459199 -0.26196301 11905961
-0.195068 -0.039459199 -0.26196301 11708582
-0.19458 -0.039611802 -0.26293901 11643302
-0.187622 -0.040527299 -0.269043 11775658
-0.18640099 -0.040527299 -0.269043 11972267
-0.18518101 -0.040527299 -0.269043 11710119
-0.18383799 -0.040527299 -0.269043 11775912
-0.18261699 -0.040527299 -0.269043 11644074
-0.18139599 -0.040527299 -0.269043 11775660
-0.18005399 -0.040527299 -0.269043 12169133
-0.171753 -0.041870099 -0.27807599 11644585
-0.1698 -0.041717499 -0.27685499 11644074
-0.168457 -0.041717499 -0.27685499 11709867
-0.165894 -0.041717499 -0.27685499 11709865
-0.164551 -0.041717499 -0.27685499 11775658
-0.16333 -0.041717499 -0.27685499 11709865
-0.16198701 -0.041717499 -0.27685499 11513001
-0.140747 -0.0380859 -0.25292999 11511716
-0.13952599 -0.0380859 -0.25292999 11512486
-0.138428 -0.0380859 -0.25292999 11775660
-0.137695 -0.038238499 -0.25390601 11578281
-0.132324 -0.038391098 -0.25488299 11447208
-0.13110401 -0.038391098 -0.25488299 11184036
-0.12988301 -0.038391098 -0.25488299 11249829
-0.12866201 -0.038391098 -0.25488299 11118243
-0.127441 -0.038391098 -0.25488299 11184036
-0.126343 -0.038391098 -0.25488299 11315109
-0.124634 -0.038238499 -0.25390601 11315109
-0.123474 -0.038238499 -0.25390601 11315622
-0.120117 -0.037933301 -0.25195301 11644587
-0.118469 -0.037780799 -0.25097701 11316392
-0.113953 -0.0375061 -0.24890099 11184806
-0.083557099 -0.039154101 -0.26001 10659238
-0.082702599 -0.0393066 -0.260986 10659238
-0.081787102 -0.039459199 -0.26196301 10659238
-0.080810502 -0.039611802 -0.26293901 10527652
-0.079589799 -0.039611802 -0.26293901 10790824
-0.078674302 -0.039764401 -0.26391599 10461859
-0.077697799 -0.039917 -0.264893 10725801
-0.076477103 -0.039917 -0.264893 10528422
-0.075500503 -0.040069599 -0.26586899 10528422
-0.074829102 -0.040374801 -0.267822 10660008
-0.073852502 -0.040527299 -0.269043 10660008
-0.072570801 -0.040527299 -0.269043 10594215
-0.071594201 -0.040679902 -0.27002001 10528935
-0.0703125 -0.040679902 -0.27002001 10463142
-0.069030799 -0.040679902 -0.27002001 10396836
-0.067749001 -0.040679902 -0.27002001 10660008
-0.0664673 -0.040679902 -0.27002001 10660008
-0.065246597 -0.040679902 -0.27002001 10857387
-0.063964799 -0.040679902 -0.27002001 10792107
-0.050567601 -0.037353501 -0.247925 10398634
-0.049591102 -0.0375061 -0.24890099 10530220
-0.0484314 -0.0375061 -0.24890099 10792879
-0.040344201 -0.0386963 -0.256836 10596013
-0.039123502 -0.0386963 -0.256836 10596013
-0.0274658 -0.0393066 -0.260986 10398380
-0.0262451 -0.0393066 -0.260986 10398380
-0.024917601 -0.039154101 -0.26001 10464173
-0.023696899 -0.039154101 -0.26001 10464427
0.042846698 -0.038543701 -0.25585899 10924463
0.0438843 -0.038391098 -0.25488299 10923693
0.0450745 -0.038391098 -0.25488299 11055279
0.046112102 -0.038238499 -0.25390601 11120559
0.047302201 -0.038238499 -0.25390601 11054766
0.0663452 -0.0368958 -0.244873 11185582
0.067749001 -0.037048299 -0.24585 11317166
0.070068397 -0.037048299 -0.24585 11382959
