0.0557861 -0.0202789 -0.429443
0.0589447 -0.0203247 -0.430664
0.058548 -0.0221939 -0.427491
0.061554 -0.0221863 -0.42749
0.0654297 -0.0221405 -0.426514
0.0581207 -0.0280304 -0.424561
0.0611267 -0.0280304 -0.424561
0.0641785 -0.0280609 -0.425049
0.0672607 -0.0280914 -0.425537
0.0690918 -0.0280304 -0.424561
-0.0286865 -0.0250016 -0.424073
0.0550537 -0.0250016 -0.424073
0.0582275 -0.0250778 -0.425293
0.0611878 -0.0250625 -0.425049
0.064209 -0.0250778 -0.425293
0.0672607 -0.025093 -0.425537
0.0692749 -0.025093 -0.425537
0.05307 -0.0230027 -0.424073
0.0552673 -0.0220947 -0.425537
0.0632324 -0.0220947 -0.425537
-0.0285187 -0.027832 -0.421631
-0.026474 -0.0277557 -0.42041
0.0548706 -0.0278931 -0.422607
-0.026535 -0.0258484 -0.421631
0.052887 -0.0259094 -0.422607
-0.026535 -0.0238647 -0.421631
0.0507813 -0.0218811 -0.421631
-0.0243073 -0.0256042 -0.41748
0.0493011 -0.0256042 -0.41748
-0.0243683 -0.0227127 -0.418457
0.049174 -0.0230713 -0.419108
-0.0243073 -0.0196991 -0.41748
0.0345764 -0.0196991 -0.41748
-0.0242005 -0.0284042 -0.415527
-0.0221863 -0.027359 -0.414551
0.0518799 -0.027359 -0.414551
-0.0222473 -0.0254822 -0.415527
-0.0222473 -0.0225373 -0.415527
0.0324402 -0.0215607 -0.415527
0.0344238 -0.0215607 -0.415527
0.0362854 -0.0215149 -0.414551
0.0460816 -0.0225144 -0.415039
-0.0221863 -0.0195618 -0.414551
0.0324402 -0.0196075 -0.415527
-0.0220337 -0.0310364 -0.411377
-0.0220795 -0.0291748 -0.412598
-0.0201187 -0.0281677 -0.411988
0.0498047 -0.027298 -0.413574
-0.0191727 -0.0252838 -0.412476
0.0282745 -0.0252228 -0.411377
0.0312195 -0.0252533 -0.411988
0.0340881 -0.0252228 -0.411377
0.0360107 -0.0252228 -0.411377
0.0458069 -0.0252838 -0.412598
-0.0191727 -0.0223846 -0.412476
0.0282745 -0.0223312 -0.411377
0.0309804 -0.0227407 -0.413249
0.0342407 -0.023407 -0.413574
0.0374247 -0.0227203 -0.412923
0.0418702 -0.0223542 -0.411988
0.0439148 -0.0224075 -0.413086
-0.0201416 -0.0194702 -0.412598
0.0302887 -0.0194702 -0.412598
-0.0220337 -0.0174866 -0.411377
-0.02005 -0.0309601 -0.4104
-0.0180664 -0.0279923 -0.409424
0.0262146 -0.0279999 -0.409424
0.0281754 -0.0280304 -0.409912
0.0310631 -0.0280304 -0.409912
0.0348663 -0.0279961 -0.409424
0.0377502 -0.0270386 -0.409424
0.0464935 -0.0270691 -0.409912
0.0494385 -0.0290222 -0.4104
-0.0161209 -0.0260315 -0.408935
-0.014183 -0.0250397 -0.408447
0.0249125 -0.0257212 -0.409098
0.0378418 -0.0251617 -0.4104
0.0405426 -0.0250397 -0.408447
0.0435333 -0.026062 -0.409424
-0.0161667 -0.0222473 -0.409912
-0.014183 -0.0221558 -0.408447
0.0252381 -0.0222016 -0.40918
0.0397034 -0.0231781 -0.409424
-0.0181122 -0.0193787 -0.4104
-0.016098 -0.0192871 -0.408447
0.0261536 -0.0192871 -0.408447
0.0282135 -0.0193787 -0.4104
-0.0218658 -0.0154419 -0.408447
-0.0193379 -0.0167491 -0.409098
0.0301361 -0.0174408 -0.4104
0.00502014 0.0268097 -0.408447
0.00694275 0.0268097 -0.408447
0.00406075 0.0287323 -0.408447
0.00790405 0.0287323 -0.408447
0.0011797 0.0306549 -0.408447
0.00439326 0.0313721 -0.409424
0.0079155 0.0316734 -0.40918
0.0107803 0.0316086 -0.408447
0.0184174 -0.0364685 -0.407471
0.0202789 -0.0344849 -0.406494
-0.0172984 -0.0312907 -0.406494
0.022171 -0.0315704 -0.406006
0.0241699 -0.0307312 -0.407471
-0.0160217 -0.0287476 -0.406494
-0.0140839 -0.0286713 -0.405518
0.0202332 -0.0286713 -0.405518
0.0222015 -0.0287476 -0.406494
0.0241699 -0.0288086 -0.407471
0.0375671 -0.0288086 -0.407471
0.040451 -0.0288086 -0.407471
0.043335 -0.0288086 -0.407471
0.0462037 -0.0288086 -0.407471
-0.0128326 -0.0261739 -0.406169
-0.0102692 -0.0258102 -0.405518
0.020256 -0.0258407 -0.406006
0.0222473 -0.0259399 -0.407471
0.040451 -0.0269012 -0.407471
-0.0122222 -0.0220871 -0.406982
-0.0102807 -0.0220261 -0.406006
0.0202332 -0.0229492 -0.405518
0.0222244 -0.0220871 -0.406982
-0.0131645 -0.0191803 -0.406494
0.0241089 -0.0191803 -0.406494
-0.0166626 -0.0160039 -0.406494
-0.0140839 -0.0172272 -0.405518
0.0260162 -0.0172729 -0.406494
0.0285441 -0.0159912 -0.406169
-0.0218201 -0.0134888 -0.407471
-0.0198517 -0.0134506 -0.406494
-0.0178986 -0.0134201 -0.405518
-0.025589 -0.0096283 -0.406494
-0.0223491 -0.0102412 -0.405518
-0.0198059 -0.0115128 -0.405518
-0.025589 -0.00772095 -0.406494
-0.0236206 -0.00770187 -0.405518
-0.0255127 -0.00484086 -0.405518
-0.0255127 -0.00197983 -0.405518
-0.0217133 0.0189819 -0.405518
-0.0198059 0.0199356 -0.405518
-0.0178986 0.0208893 -0.405518
-0.0169449 0.0227966 -0.405518
0.00403214 0.0227966 -0.405518
0.00689316 0.0227966 -0.405518
-0.0159912 0.024704 -0.405518
-0.00137123 0.026001 -0.405843
0.0011754 0.0257569 -0.406982
0.0037295 0.0254466 -0.407145
0.00819016 0.0254262 -0.40682
0.0107154 0.0256958 -0.406006
0.0135651 0.0266113 -0.405518
-0.00454712 0.0285187 -0.405518
-0.00169301 0.0286332 -0.406982
0.00117683 0.0286713 -0.407471
0.0107574 0.0286713 -0.407471
0.0135803 0.0285568 -0.406006
-0.00455856 0.0305023 -0.406494
-0.00169301 0.0305405 -0.406982
0.0136146 0.0305405 -0.406982
0.01828 -0.0343018 -0.404541
-0.0158997 -0.0323181 -0.403564
-0.0130482 -0.0313263 -0.402954
-0.0101929 -0.0303497 -0.402344
-0.00735474 -0.0303497 -0.402344
0.0162964 -0.0303497 -0.402344
0.0191879 -0.0313682 -0.403503
-0.012146 -0.028595 -0.404541
-0.0102158 -0.0285339 -0.403564
-0.00736236 -0.0284958 -0.402954
-0.00451279 -0.0284576 -0.402344
0.0162964 -0.0284576 -0.402344
0.01828 -0.028595 -0.404541
-0.00738525 -0.0257301 -0.404297
-0.00451851 -0.0256501 -0.402954
-0.0026226 -0.0246735 -0.402344
0.0144119 -0.0246735 -0.402344
0.0163422 -0.0256805 -0.403564
0.01828 -0.0257492 -0.404541
-0.00738144 -0.0228653 -0.404052
-0.00451279 -0.0227814 -0.402344
0.0163422 -0.0228424 -0.403564
0.01828 -0.0228882 -0.404541
-0.0102158 -0.019043 -0.403564
-0.00767517 -0.0202739 -0.402751
0.0162964 -0.0208893 -0.402344
0.0191879 -0.0199928 -0.403503
0.0220947 -0.0190887 -0.404541
-0.0127386 -0.0158717 -0.403157
-0.0101929 -0.0171051 -0.402344
0.0232951 -0.0165151 -0.403483
0.0258331 -0.0152512 -0.403564
-0.0158997 -0.0133514 -0.403564
-0.0139771 -0.0133209 -0.402344
0.0257568 -0.0133209 -0.402344
0.0286408 -0.0133361 -0.402954
-0.0196991 -0.00955963 -0.403564
-0.0171458 -0.0108083 -0.402751
0.0314331 -0.0104828 -0.402344
0.0333252 -0.0104828 -0.402344
-0.0216522 -0.0076828 -0.404541
-0.0196991 -0.00766373 -0.403564
0.0314331 -0.00764465 -0.402344
0.034317 -0.00765419 -0.402954
-0.0225754 -0.00482226 -0.404052
-0.0196533 -0.00575256 -0.402344
0.034317 -0.00481081 -0.402954
-0.0254517 -7.4029e-05 -0.404541
-0.022522 -0.00102107 -0.402954
0.034317 -0.0010211 -0.402954
-0.0234375 0.00181866 -0.402344
0.034317 0.00182104 -0.402954
-0.0253296 0.0037117 -0.402344
-0.0234375 0.00465774 -0.402344
0.0314331 0.00465774 -0.402344
0.0343399 0.00466776 -0.403259
-0.0253906 0.00751495 -0.403564
-0.0224915 0.00749588 -0.402344
0.0314331 0.00749588 -0.402344
0.0343627 0.00751495 -0.403564
-0.0253906 0.00940704 -0.403564
-0.0225334 0.0103512 -0.403259
-0.0196533 0.0112839 -0.402344
0.0295563 0.0112839 -0.402344
0.0314789 0.0103455 -0.402954
0.0344086 0.0103722 -0.404052
-0.0225448 0.0132065 -0.403564
-0.0196533 0.013176 -0.402344
0.0295563 0.013176 -0.402344
0.0315247 0.0132065 -0.403564
0.0344544 0.013237 -0.404541
-0.0216522 0.0160942 -0.404541
-0.019722 0.0160752 -0.404052
-0.0171458 0.0163396 -0.402751
0.0286408 0.0160313 -0.402954
0.0315552 0.0160752 -0.404052
0.0335083 0.0160942 -0.404541
-0.016566 0.0195567 -0.404215
-0.0133591 0.0201263 -0.402751
-0.000729561 0.0207367 -0.402344
0.00116253 0.0207367 -0.402344
0.00401116 0.0207977 -0.403564
0.00779343 0.0207672 -0.402954
0.0106277 0.0207367 -0.402344
0.0125198 0.0207367 -0.402344
0.0229187 0.0207367 -0.402344
0.0257949 0.0198212 -0.402954
0.0286903 0.0198555 -0.403808
0.0315857 0.0189362 -0.404541
-0.0130806 0.0227203 -0.404052
-0.0101929 0.0226288 -0.402344
-0.00735474 0.0226288 -0.402344
-0.00451279 0.0226288 -0.402344
-0.00168085 0.0227203 -0.404052
0.00116825 0.0227509 -0.404541
0.0087738 0.0227509 -0.404541
0.0106735 0.0227509 -0.404541
0.0134964 0.0226898 -0.403564
0.0162964 0.0226288 -0.402344
0.0191346 0.0226288 -0.402344
0.0229492 0.0226593 -0.402954
0.0258331 0.0226898 -0.403564
0.0278015 0.0227509 -0.404541
-0.0130806 0.0246124 -0.404052
-0.0102158 0.0255356 -0.403564
-0.00737381 0.0255508 -0.403808
-0.00453568 0.0255966 -0.404541
-0.00263405 0.0246429 -0.404541
0.0135307 0.0246429 -0.404541
0.0163651 0.0255661 -0.404052
0.0191994 0.0255509 -0.403808
0.0230102 0.0255661 -0.404052
0.0258942 0.0246429 -0.404541
0.0278015 0.0246429 -0.404541
-0.00738907 0.0284576 -0.404541
0.0163879 0.0284576 -0.404541
0.0192337 0.0284576 -0.404541
0.0220947 0.0284576 -0.404541
-0.0129966 -0.0340576 -0.401367
-0.0101395 -0.0339661 -0.400391
0.013059 -0.0345357 -0.39974
0.0162659 -0.0340576 -0.401367
-0.0101624 -0.0321655 -0.401367
-0.00733376 -0.0321655 -0.401367
-0.00450134 -0.0312195 -0.401367
-0.00166714 -0.0311127 -0.400147
0.0105438 -0.0301208 -0.399414
0.0133781 -0.0310936 -0.399903
0.0162659 -0.0321655 -0.401367
-0.00167036 -0.0283585 -0.400879
0.00115395 -0.028244 -0.399414
0.00303268 -0.028244 -0.399414
0.00866699 -0.028244 -0.399414
0.0105438 -0.028244 -0.399414
0.0134125 -0.0283585 -0.400879
-0.00135676 -0.0258738 -0.401367
0.00115681 -0.0254898 -0.400391
0.0039711 -0.0254288 -0.399414
0.00772858 -0.0254288 -0.399414
0.0105743 -0.0254898 -0.400391
0.0131048 -0.0258484 -0.401042
-0.00167036 -0.0226974 -0.400879
0.00115395 -0.0226135 -0.399414
0.00303268 -0.0226135 -0.399414
0.00866699 -0.0226135 -0.399414
0.0105438 -0.0226135 -0.399414
0.0134125 -0.0226974 -0.400879
-0.00638962 -0.0189514 -0.401367
-0.00448989 -0.0198517 -0.400391
-0.00166678 -0.0207596 -0.399903
0.0105438 -0.0207367 -0.399414
0.01371 -0.020162 -0.400391
0.0162201 -0.0189056 -0.400391
-0.0101395 -0.0151367 -0.400391
-0.00730705 -0.0169907 -0.399903
0.0161743 -0.0169678 -0.399414
0.0193532 -0.0163905 -0.400391
0.0219269 -0.0151749 -0.401367
-0.0120239 -0.0132523 -0.400391
0.022789 -0.013237 -0.399903
-0.0157928 -0.00949097 -0.400391
-0.0138893 -0.0104141 -0.399903
0.0236969 -0.0113449 -0.399414
0.0256042 -0.0104141 -0.399903
0.0285149 -0.0104504 -0.401123
-0.0167313 -0.0076065 -0.400391
0.0284958 -0.00761604 -0.400879
-0.0196075 -0.00384903 -0.401367
-0.0170288 -0.00508944 -0.400065
0.0284272 -0.00477457 -0.399902
0.0313721 -0.00479317 -0.401367
-0.019577 -0.00101703 -0.400879
-0.0176239 -0.00101218 -0.399414
0.0284272 -0.00101317 -0.399903
0.0313721 -0.00101715 -0.401367
-0.0214844 0.00181389 -0.401367
-0.0195465 0.00181007 -0.400391
-0.0176239 0.00180531 -0.399414
0.0284272 0.00180769 -0.399903
0.0313721 0.00181389 -0.401367
-0.0214844 0.00464534 -0.401367
-0.0195465 0.00463486 -0.400391
-0.0176239 0.00462246 -0.399414
0.0284462 0.00463152 -0.400146
-0.0196075 0.00747681 -0.401367
-0.0176239 0.00743866 -0.399414
0.0284958 0.00746727 -0.400879
-0.0196075 0.00936127 -0.401367
-0.0167084 0.0102672 -0.399903
0.0256042 0.0102691 -0.399903
0.0281932 0.00998435 -0.401042
-0.0167542 0.0131225 -0.400879
-0.0138893 0.0140343 -0.399903
-0.0119934 0.0149536 -0.399414
0.0230916 0.0143407 -0.39974
0.0256348 0.0131073 -0.400391
0.0275879 0.0131378 -0.401367
-0.0158234 0.0150299 -0.401367
-0.0129814 0.0168914 -0.400879
-0.0101166 0.0168304 -0.399414
0.0189896 0.0168304 -0.399414
0.0228424 0.0168914 -0.400879
0.0256958 0.0159683 -0.401367
-0.0120544 0.0187988 -0.401367
-0.010151 0.019722 -0.400879
-0.00732422 0.019722 -0.400879
-0.00449562 0.019722 -0.400879
-0.00198348 0.019399 -0.400716
0.00115681 0.0187531 -0.400391
0.00398827 0.018776 -0.400879
0.00775719 0.018776 -0.400879
0.0105743 0.0187531 -0.400391
0.0137202 0.019399 -0.400716
0.016243 0.019722 -0.400879
0.0190658 0.019722 -0.400879
0.022873 0.0187988 -0.401367
0.00114822 -0.0336914 -0.397461
0.00395203 -0.0336914 -0.397461
0.00801468 -0.0343831 -0.398112
0.0105209 -0.034729 -0.398438
0.00115108 -0.030983 -0.398438
0.0039568 -0.0309372 -0.397949
0.00770378 -0.0309601 -0.398194
0.0105209 -0.0319214 -0.398438
0.00489807 -0.028183 -0.398438
0.00677109 -0.028183 -0.398438
0.00489807 -0.0225525 -0.398438
0.00677109 -0.0225525 -0.398438
-0.00165915 -0.0187988 -0.398438
0.00114965 -0.0197144 -0.39795
0.00395679 -0.0197144 -0.39795
0.00769806 -0.0197144 -0.39795
0.0105209 -0.0187988 -0.398438
0.0123901 -0.0187988 -0.398438
-0.00727272 -0.0150413 -0.39795
-0.00446701 -0.0169373 -0.398438
-0.00165343 -0.0168686 -0.396972
0.00114536 -0.0168457 -0.396484
0.0030098 -0.0168457 -0.396484
0.00766755 -0.0168457 -0.396484
0.0104675 -0.0168457 -0.396484
0.0136185 -0.0162837 -0.397787
0.016098 -0.0150223 -0.397461
0.0180054 -0.0150604 -0.398438
-0.0100861 -0.0131912 -0.398438
-0.00725174 -0.0131378 -0.396972
-0.00444794 -0.0149841 -0.396484
0.0123291 -0.0149841 -0.396484
0.0170059 -0.0131378 -0.396972
0.0198822 -0.0131912 -0.398438
-0.0109997 -0.0103512 -0.397461
-0.00817108 -0.0112534 -0.396484
0.0179138 -0.0112534 -0.396484
0.0198135 -0.0103378 -0.396972
0.0223643 -0.0100555 -0.398112
-0.0138397 -0.00756836 -0.398438
-0.0119019 -0.00753021 -0.396484
0.0226135 -0.00753975 -0.396972
0.0255127 -0.00756836 -0.398438
-0.0157013 -0.00382042 -0.398438
-0.0138016 -0.00474548 -0.397461
-0.0119019 -0.00566483 -0.396484
0.0235443 -0.00474072 -0.396972
0.0255127 -0.00475598 -0.398438
-0.0156861 -0.00100961 -0.39795
-0.0137711 -0.00100475 -0.396484
0.0235138 -0.00100475 -0.396484
0.0254364 -0.00100723 -0.397461
-0.0156708 0.00179577 -0.397461
-0.0137711 0.00179195 -0.396484
0.0235138 0.00179195 -0.396484
0.0254364 0.00179577 -0.397461
-0.0156861 0.00460625 -0.39795
-0.0137711 0.00458813 -0.396484
0.0229136 0.0049038 -0.39681
0.0255127 0.00461006 -0.398438
-0.0157013 0.00741959 -0.398438
-0.0138016 0.00740433 -0.397461
0.0226135 0.00739479 -0.396972
0.0255127 0.00741959 -0.398438
-0.0138207 0.0102196 -0.39795
-0.0112915 0.010498 -0.39681
0.0179138 0.0111084 -0.396484
0.0197906 0.0101776 -0.396484
0.0226669 0.0102177 -0.39795
-0.0107041 0.0136541 -0.398112
-0.00725078 0.0139275 -0.396973
-0.00444794 0.0148392 -0.396484
-0.00165057 0.0148392 -0.396484
0.00114536 0.0148392 -0.396484
0.00394059 0.0148392 -0.396484
0.00767899 0.0148582 -0.396972
0.0104904 0.0148773 -0.397461
0.013593 0.0142441 -0.397135
0.0167033 0.013621 -0.397135
0.0192413 0.0142797 -0.398112
0.021759 0.0130386 -0.398438
-0.00728035 0.0167847 -0.398438
-0.00446701 0.0167847 -0.398438
-0.00165915 0.0167847 -0.398438
0.00115108 0.0167847 -0.398438
0.00396156 0.0167847 -0.398438
0.00770759 0.0167847 -0.398438
0.0105209 0.0167847 -0.398438
0.0133286 0.0167847 -0.398438
0.0161438 0.0167847 -0.398438
0.00485992 -0.0167999 -0.395508
-0.00443649 -0.0130844 -0.395508
-0.00164449 -0.014 -0.39502
0.00206518 -0.0139751 -0.394165
0.00484276 -0.0139656 -0.393921
0.0076313 -0.0139828 -0.39447
0.0104255 -0.014 -0.39502
0.0132294 -0.0130844 -0.395508
-0.00690969 -0.0099818 -0.395182
-0.00441932 -0.0102616 -0.393921
-0.00163841 -0.0111694 -0.393311
0.00113678 -0.0111694 -0.393311
0.00761222 -0.0111694 -0.393311
0.0103836 -0.0111694 -0.393311
0.0131779 -0.0102616 -0.393921
0.0166219 -0.0099818 -0.395182
-0.0100098 -0.00751114 -0.395508
-0.00719833 -0.00748253 -0.393921
0.0140839 -0.00747299 -0.393311
0.0168763 -0.00748253 -0.393921
0.0197296 -0.00751114 -0.395508
-0.0106227 -0.00440788 -0.395182
-0.00750224 -0.00500997 -0.393718
0.0171611 -0.00500615 -0.393311
0.0196838 -0.00470829 -0.394531
0.0215912 -0.00472069 -0.395508
-0.0109291 -0.00100103 -0.39502
-0.00811005 -0.000996826 -0.393311
0.0177765 -0.000996856 -0.393311
0.0196838 -0.00099981 -0.394531
0.0215912 -0.00100228 -0.395508
-0.0109291 0.0017848 -0.39502
-0.00811005 0.00177765 -0.393311
0.0177765 0.00177765 -0.393311
0.0196838 0.00178242 -0.394531
0.0215912 0.00178719 -0.395508
-0.0109291 0.00457048 -0.39502
-0.00749461 0.0048612 -0.393311
0.0168648 0.00455666 -0.393616
0.0197067 0.00457096 -0.39502
0.0215912 0.00364685 -0.395508
-0.0109291 0.00735665 -0.39502
-0.00719833 0.00733757 -0.393921
0.0131607 0.00732803 -0.393311
0.0168991 0.00734711 -0.394531
0.0197296 0.00736618 -0.395508
-0.0100098 0.00922394 -0.395508
-0.00721168 0.0101356 -0.394775
-0.00441932 0.0101166 -0.393921
-0.00194868 0.0104192 -0.393718
0.00206185 0.0110245 -0.393311
0.00483704 0.0110245 -0.393311
0.00792821 0.0104192 -0.393718
0.0103988 0.0101166 -0.393921
0.0131969 0.0101299 -0.39447
0.0166219 0.00983683 -0.395182
-0.00443649 0.0129395 -0.395508
-0.00164676 0.0129395 -0.395508
0.0011425 0.0129395 -0.395508
0.00393105 0.0129395 -0.395508
0.00764847 0.0129395 -0.395508
0.010437 0.0129395 -0.395508
0.0122986 0.0129395 -0.395508
-0.00163365 -0.00930023 -0.392334
0.00236416 -0.00991312 -0.392334
0.00482559 -0.0102196 -0.392334
0.00759124 -0.00930023 -0.392334
0.0103607 -0.00930023 -0.392334
-0.00440216 -0.00745392 -0.392334
-0.00163365 -0.00745392 -0.392334
0.00205136 -0.00743484 -0.391357
0.00481033 -0.00743484 -0.391357
0.00757218 -0.00743484 -0.391357
0.0103607 -0.00745392 -0.392334
0.012207 -0.00745392 -0.392334
-0.00624847 -0.0037632 -0.392334
-0.00440216 -0.0046854 -0.392334
-0.00163126 -0.00467682 -0.391601
0.00205136 -0.00467301 -0.391357
0.00480461 -0.00466824 -0.390869
0.00756741 -0.00467062 -0.391113
0.0103302 -0.00467301 -0.391357
0.0131225 -0.00468301 -0.39209
0.0158997 -0.0037632 -0.392334
-0.00624847 -0.000994357 -0.392334
-0.00440216 -0.000994357 -0.392334
-0.00162983 -0.000991882 -0.391357
0.00204754 -0.000990645 -0.390869
0.00479889 -0.000989408 -0.390381
0.0075512 -0.000989438 -0.390381
0.0103302 -0.000991912 -0.391357
0.0131149 -0.000993149 -0.391846
0.0158997 -0.000994387 -0.392334
-0.00624847 0.00177383 -0.392334
-0.00440216 0.00177383 -0.392334
-0.00162983 0.00176907 -0.391357
0.00204754 0.00176669 -0.390869
0.00479889 0.0017643 -0.390381
0.0075512 0.0017643 -0.390381
0.0103302 0.00176907 -0.391357
0.0131149 0.00177145 -0.391846
0.0158997 0.00177383 -0.392334
-0.00624847 0.00361824 -0.392334
-0.00440216 0.00454045 -0.392334
-0.00163126 0.00453281 -0.391601
0.00205136 0.00452995 -0.391357
0.00480461 0.00452614 -0.390869
0.00757218 0.00452995 -0.391357
0.0103454 0.00453568 -0.391846
0.0131301 0.00454045 -0.392334
-0.00440216 0.00730896 -0.392334
-0.00163365 0.00730896 -0.392334
0.00205279 0.00729943 -0.391846
0.00481033 0.00728989 -0.391357
0.00759124 0.00730896 -0.392334
0.0103607 0.00730896 -0.392334
-0.000711441 0.00915527 -0.392334
0.0020566 0.00915527 -0.392334
0.00482559 0.00915527 -0.392334
0.00666809 0.00915527 -0.392334
