-0.158691 -0.0348511 -0.336182
-0.157593 -0.0349426 -0.337158
-0.156006 -0.0349426 -0.337158
-0.154907 -0.0350342 -0.338135
-0.154175 -0.0352478 -0.340088
-0.153442 -0.0354614 -0.342285
-0.151855 -0.0354614 -0.342285
-0.151123 -0.035675 -0.344238
-0.149902 -0.0357666 -0.345215
-0.138916 -0.0346375 -0.334229
-0.139771 -0.035675 -0.344238
-0.137817 -0.035553 -0.343262
-0.135742 -0.0354614 -0.342285
-0.120239 -0.033783 -0.326172
-0.117615 -0.0334778 -0.323242
-0.116089 -0.0334778 -0.323242
-0.113464 -0.0331726 -0.320068
-0.111633 -0.0330811 -0.319092
-0.10907 -0.0327454 -0.316162
-0.107239 -0.0326538 -0.315186
-0.105469 -0.0325623 -0.314209
-0.102173 -0.0324402 -0.312988
-0.101013 -0.0325623 -0.314209
-0.0995483 -0.0325623 -0.314209
-0.0983887 -0.0326538 -0.315186
-0.0978394 -0.032959 -0.318115
-0.0429993 -0.0322266 -0.311035
-0.0415344 -0.0322266 -0.311035
-0.0403137 -0.0324402 -0.312988
-0.0388489 -0.0324402 -0.312988
-0.0375061 -0.0325623 -0.314209
-0.0363464 -0.0328674 -0.317139
-0.0347595 -0.0327454 -0.316162
-0.0332642 -0.0327454 -0.316162
-0.0318909 -0.0328674 -0.317139
-0.0303955 -0.0328674 -0.317139
-0.0289154 -0.0328674 -0.317139
-0.0275116 -0.032959 -0.318115
-0.0260925 -0.0330811 -0.319092
-0.0246735 -0.0331726 -0.320068
0.0365906 -0.0327454 -0.316162
0.0380859 -0.0327454 -0.316162
0.0394287 -0.0326538 -0.315186
0.0407715 -0.0325623 -0.314209
0.0422668 -0.0325623 -0.314209
0.0437317 -0.0325623 -0.314209
0.0452271 -0.0325623 -0.314209
0.0463867 -0.0323486 -0.312012
0.047699 -0.0322266 -0.311035
0.0490112 -0.032135 -0.310059
0.0550232 -0.0314026 -0.302979
0.0564575 -0.0314026 -0.302979
0.0582581 -0.0316162 -0.305176
0.0595093 -0.0314941 -0.303955
0.0609436 -0.0314941 -0.303955
0.062561 -0.0316162 -0.305176
0.064209 -0.0317078 -0.306152
0.0658569 -0.0318298 -0.307129
0.0675049 -0.0319214 -0.308105
0.0692139 -0.0320435 -0.309082
0.0708618 -0.032135 -0.310059
0.0742798 -0.0323486 -0.312012
0.0757446 -0.0323486 -0.312012
0.0772095 -0.0323486 -0.312012
0.0786743 -0.0323486 -0.312012
0.079895 -0.0322266 -0.311035
0.0813599 -0.0322266 -0.311035
0.0825806 -0.032135 -0.310059
0.0980835 -0.0324402 -0.312988
0.0998535 -0.0325623 -0.314209
0.101013 -0.0324402 -0.312988
0.102478 -0.0324402 -0.312988
0.103943 -0.0324402 -0.312988
0.105469 -0.0324402 -0.312988
0.106934 -0.0324402 -0.312988
0.108398 -0.0324402 -0.312988
0.109863 -0.0324402 -0.312988
0.111328 -0.0324402 -0.312988
0.112793 -0.0324402 -0.312988
0.114624 -0.0325623 -0.314209
0.11615 -0.0325623 -0.314209
0.117981 -0.0326538 -0.315186
0.120239 -0.0328674 -0.317139
0.121704 -0.0328674 -0.317139
0.123596 -0.032959 -0.318115
0.124695 -0.0328674 -0.317139
0.126099 -0.0328674 -0.317139
0.125977 -0.0324402 -0.312988
0.127075 -0.0323486 -0.312012
0.129761 -0.0326538 -0.315186
0.131714 -0.0327454 -0.316162
0.133179 -0.0327454 -0.316162
0.135132 -0.0328674 -0.317139
0.136597 -0.0328674 -0.317139
0.137695 -0.0327454 -0.316162
0.143311 -0.0307922 -0.297119
0.144775 -0.0307922 -0.297119
0.160034 -0.0330811 -0.319092
0.152344 -0.0312042 -0.301025
0.153809 -0.0312042 -0.301025
0.15625 -0.0314026 -0.302979
0.157104 -0.031311 -0.302002
0.158569 -0.031311 -0.302002
0.158325 -0.0309906 -0.299072
0.160278 -0.0310974 -0.300049
0.162231 -0.0312042 -0.301025
0.164795 -0.0314026 -0.302979
0.167236 -0.0316162 -0.305176
0.1698 -0.0318298 -0.307129
0.171875 -0.0319214 -0.308105
0.174438 -0.032135 -0.310059
0.176392 -0.0322266 -0.311035
0.177856 -0.0322266 -0.311035
0.179932 -0.0323486 -0.312012
0.182007 -0.0324402 -0.312988
0.184082 -0.0325623 -0.314209
0.186157 -0.0326538 -0.315186
0.187012 -0.0325623 -0.314209
0.187866 -0.0324402 -0.312988
0.199219 -0.0305786 -0.294922
0.211792 -0.0316162 -0.305176
0.212524 -0.0314941 -0.303955
0.213257 -0.0314026 -0.302979
0.213989 -0.031311 -0.302002
0.2146 -0.0312042 -0.301025
0.215332 -0.0310974 -0.300049
0.216064 -0.0309906 -0.299072
0.216675 -0.030899 -0.298096
0.21814 -0.030899 -0.298096
0.220947 -0.0310974 -0.300049
0.231323 -0.0323486 -0.312012
0.237305 -0.032959 -0.318115
0.239502 -0.0330811 -0.319092
0.241821 -0.0331726 -0.320068
0.244019 -0.0332642 -0.321045
0.245605 -0.0332642 -0.321045
0.247925 -0.0333862 -0.322021
0.24939 -0.0333862 -0.322021
0.22876 -0.0302734 -0.291992
0.230225 -0.0302734 -0.291992
0.25708 -0.0335999 -0.324219
0.257813 -0.0334778 -0.323242
0.259277 -0.0334778 -0.323242
0.26001 -0.0333862 -0.322021
0.261475 -0.0333862 -0.322021
0.262207 -0.0332642 -0.321045
0.263672 -0.0332642 -0.321045
0.265137 -0.0332642 -0.321045
0.266602 -0.0332642 -0.321045
0.270508 -0.0333862 -0.322021
0.250732 -0.0307922 -0.297119
0.251465 -0.0306854 -0.296143
0.252686 -0.0306854 -0.296143
0.25415 -0.0306854 -0.296143
0.254639 -0.0305786 -0.294922
0.256104 -0.0305786 -0.294922
0.277344 -0.0314026 -0.302979
0.278809 -0.0314026 -0.302979
0.279297 -0.031311 -0.302002
0.279785 -0.0312042 -0.301025
0.28125 -0.0312042 -0.301025
0.282471 -0.0312042 -0.301025
0.282959 -0.0310974 -0.300049
0.284424 -0.0310974 -0.300049
0.285889 -0.0310974 -0.300049
0.287354 -0.0310974 -0.300049
0.287598 -0.0309906 -0.299072
0.289063 -0.0309906 -0.299072
0.290527 -0.0309906 -0.299072
0.291016 -0.030899 -0.298096
-0.203125 -0.0338135 -0.312012
-0.20166 -0.0338135 -0.312012
-0.199585 -0.0336914 -0.311035
-0.19812 -0.0336914 -0.311035
-0.197266 -0.0338135 -0.312012
-0.195801 -0.0338135 -0.312012
-0.195557 -0.0340271 -0.314209
-0.194702 -0.0341492 -0.315186
-0.194458 -0.0343628 -0.317139
-0.193604 -0.0344543 -0.318115
-0.194214 -0.0351257 -0.324219
-0.194458 -0.0354309 -0.327148
-0.193481 -0.035553 -0.328125
-0.192505 -0.0356445 -0.329102
-0.191528 -0.0357666 -0.330078
-0.190063 -0.0357666 -0.330078
-0.189575 -0.0359802 -0.332275
-0.189209 -0.0361938 -0.334229
-0.161377 -0.0333862 -0.308105
-0.159424 -0.0332642 -0.307129
-0.157959 -0.0332642 -0.307129
-0.156006 -0.0331421 -0.306152
-0.154053 -0.0330505 -0.305176
-0.1521 -0.0329285 -0.303955
-0.150146 -0.0328369 -0.302979
-0.148804 -0.0328369 -0.302979
-0.159302 -0.0361938 -0.334229
-0.158203 -0.0363159 -0.335205
-0.156616 -0.0363159 -0.335205
-0.155518 -0.0364075 -0.336182
-0.154419 -0.0365295 -0.337158
-0.112488 -0.033905 -0.312988
-0.111023 -0.033905 -0.312988
-0.109497 -0.033905 -0.312988
-0.108398 -0.0340271 -0.314209
-0.106934 -0.0340271 -0.314209
-0.105103 -0.033905 -0.312988
-0.103333 -0.0338135 -0.312012
-0.101807 -0.0338135 -0.312012
-0.100342 -0.0338135 -0.312012
-0.0985718 -0.0336914 -0.311035
-0.0971069 -0.0336914 -0.311035
-0.0706177 -0.0322876 -0.298096
-0.0692139 -0.0322876 -0.298096
-0.0678101 -0.0322876 -0.298096
-0.0666504 -0.0324097 -0.299072
-0.0438843 -0.0332642 -0.307129
-0.0413818 -0.0335999 -0.310059
-0.0400696 -0.0336914 -0.311035
-0.0387268 -0.0338135 -0.312012
-0.037384 -0.033905 -0.312988
-0.0358887 -0.033905 -0.312988
-0.0345459 -0.0340271 -0.314209
-0.0331726 -0.0341492 -0.315186
-0.0317993 -0.0342407 -0.316162
-0.030304 -0.0342407 -0.316162
-0.0288239 -0.0342407 -0.316162
-0.02742 -0.0343628 -0.317139
-0.0260925 -0.0345764 -0.319092
-0.0245972 -0.0345764 -0.319092
0.0380859 -0.0342407 -0.316162
0.0393066 -0.0340271 -0.314209
0.0407715 -0.0340271 -0.314209
0.0422668 -0.0340271 -0.314209
0.0436096 -0.033905 -0.312988
0.0450745 -0.033905 -0.312988
0.0463867 -0.0338135 -0.312012
0.047699 -0.0336914 -0.311035
0.0490112 -0.0335999 -0.310059
0.0534363 -0.0327148 -0.302002
0.0548401 -0.0327148 -0.302002
0.0560913 -0.0326233 -0.301025
0.058075 -0.0329285 -0.303955
0.0593262 -0.0328369 -0.302979
0.06073 -0.0328369 -0.302979
0.0623779 -0.0329285 -0.303955
0.0639648 -0.0330505 -0.305176
0.0656738 -0.0331421 -0.306152
0.0673218 -0.0332642 -0.307129
0.0689697 -0.0333862 -0.308105
0.0706787 -0.0334778 -0.309082
0.0723267 -0.0335999 -0.310059
0.0740356 -0.0336914 -0.311035
0.0757446 -0.0338135 -0.312012
0.0769653 -0.0336914 -0.311035
0.0784302 -0.0336914 -0.311035
0.079895 -0.0336914 -0.311035
0.0811157 -0.0335999 -0.310059
0.0822754 -0.0334778 -0.309082
0.0995483 -0.033905 -0.312988
0.101013 -0.033905 -0.312988
0.102478 -0.033905 -0.312988
0.103943 -0.033905 -0.312988
0.105469 -0.033905 -0.312988
0.106934 -0.033905 -0.312988
0.108398 -0.033905 -0.312988
0.109863 -0.033905 -0.312988
0.111328 -0.033905 -0.312988
0.112793 -0.033905 -0.312988
0.114258 -0.033905 -0.312988
0.115784 -0.033905 -0.312988
0.117981 -0.0341492 -0.315186
0.119812 -0.0342407 -0.316162
0.121338 -0.0342407 -0.316162
0.122742 -0.0338135 -0.312012
0.125366 -0.0341492 -0.315186
0.125244 -0.0336914 -0.311035
0.127075 -0.0338135 -0.312012
0.12854 -0.0338135 -0.312012
0.130493 -0.033905 -0.312988
0.132813 -0.0341492 -0.315186
0.134644 -0.0342407 -0.316162
0.136108 -0.0342407 -0.316162
0.137207 -0.0341492 -0.315186
0.143311 -0.0321655 -0.297119
0.144775 -0.0321655 -0.297119
0.14563 -0.032074 -0.296143
0.146973 -0.032074 -0.296143
0.148438 -0.032074 -0.296143
0.14978 -0.032074 -0.296143
0.151733 -0.0321655 -0.297119
0.153076 -0.0321655 -0.297119
0.155518 -0.0324097 -0.299072
0.157471 -0.0325012 -0.300049
0.157349 -0.0321655 -0.297119
0.160278 -0.0325012 -0.300049
0.162231 -0.0326233 -0.301025
0.164185 -0.0327148 -0.302002
0.166748 -0.0329285 -0.303955
0.168701 -0.0330505 -0.305176
0.171875 -0.0333862 -0.308105
0.173828 -0.0334778 -0.309082
0.175903 -0.0335999 -0.310059
0.177856 -0.0336914 -0.311035
0.179932 -0.0338135 -0.312012
0.181396 -0.0338135 -0.312012
0.182861 -0.0338135 -0.312012
0.185547 -0.0340271 -0.314209
0.188477 -0.0340271 -0.314209
0.185059 -0.030777 -0.283936
0.187134 -0.0308838 -0.284912
0.189087 -0.0309906 -0.285889
0.191162 -0.0310974 -0.287109
0.192505 -0.0310974 -0.287109
0.194458 -0.0312042 -0.288086
0.195923 -0.0312042 -0.288086
0.197266 -0.0312042 -0.288086
0.199219 -0.031311 -0.289063
0.201294 -0.0314026 -0.290039
0.203369 -0.0315247 -0.291016
0.205444 -0.0316467 -0.291992
0.208984 -0.0319519 -0.294922
0.215332 -0.0327148 -0.302002
0.213135 -0.0321655 -0.297119
0.2146 -0.0321655 -0.297119
0.215942 -0.0321655 -0.297119
0.216675 -0.032074 -0.296143
0.216553 -0.0318604 -0.293945
0.217896 -0.0318604 -0.293945
0.21936 -0.0318604 -0.293945
0.219971 -0.0317383 -0.292969
0.228882 -0.0328369 -0.302979
0.226685 -0.0315247 -0.291016
0.228027 -0.0315247 -0.291016
0.22937 -0.0315247 -0.291016
0.22998 -0.0314026 -0.290039
0.230591 -0.031311 -0.289063
0.231934 -0.031311 -0.289063
0.250732 -0.0321655 -0.297119
0.251465 -0.032074 -0.296143
0.251953 -0.0319519 -0.294922
0.253418 -0.0319519 -0.294922
0.253906 -0.0318604 -0.293945
0.255127 -0.0318604 -0.293945
0.27832 -0.0329285 -0.303955
0.277832 -0.0327148 -0.302002
0.27832 -0.0326233 -0.301025
0.279785 -0.0326233 -0.301025
0.280273 -0.0325012 -0.300049
0.281738 -0.0325012 -0.300049
0.282959 -0.0325012 -0.300049
0.284424 -0.0325012 -0.300049
0.284912 -0.0324097 -0.299072
0.286377 -0.0324097 -0.299072
0.287598 -0.0324097 -0.299072
0.289063 -0.0324097 -0.299072
0.289551 -0.0322876 -0.298096
0.291016 -0.0322876 -0.298096
-0.205566 -0.0349426 -0.309082
-0.204102 -0.0349426 -0.309082
-0.202637 -0.0349426 -0.309082
-0.201782 -0.0350647 -0.310059
-0.200317 -0.0350647 -0.310059
-0.199585 -0.0351563 -0.311035
-0.19812 -0.0351563 -0.311035
-0.196655 -0.0351563 -0.311035
-0.195801 -0.0352783 -0.312012
-0.194946 -0.0354004 -0.312988
-0.194092 -0.0354919 -0.314209
-0.193237 -0.035614 -0.315186
-0.192993 -0.0358582 -0.317139
-0.193237 -0.0361938 -0.320068
-0.193604 -0.0365295 -0.323242
-0.193848 -0.0368652 -0.326172
-0.193481 -0.0370789 -0.328125
-0.192505 -0.0372009 -0.329102
-0.19104 -0.0372009 -0.329102
-0.190063 -0.037323 -0.330078
-0.189087 -0.0374451 -0.331055
-0.188599 -0.0376587 -0.333252
-0.160889 -0.0346985 -0.307129
-0.159424 -0.0346985 -0.307129
-0.157959 -0.0346985 -0.307129
-0.156006 -0.0346069 -0.306152
-0.153564 -0.0343628 -0.303955
-0.151611 -0.0342407 -0.302979
-0.150146 -0.0342407 -0.302979
-0.148315 -0.0341492 -0.302002
-0.146362 -0.0340271 -0.301025
-0.144409 -0.033905 -0.300049
-0.142578 -0.0338135 -0.299072
-0.141113 -0.0338135 -0.299072
-0.139771 -0.0338135 -0.299072
-0.138306 -0.0338135 -0.299072
-0.136963 -0.0338135 -0.299072
-0.133667 -0.0340271 -0.301025
-0.13147 -0.0346069 -0.306152
-0.130127 -0.0346069 -0.306152
-0.128662 -0.0346069 -0.306152
-0.112854 -0.0350647 -0.310059
-0.112122 -0.0352783 -0.312012
-0.110657 -0.0352783 -0.312012
-0.109497 -0.0354004 -0.312988
-0.108032 -0.0354004 -0.312988
-0.106262 -0.0352783 -0.312012
-0.105103 -0.0354004 -0.312988
-0.103333 -0.0352783 -0.312012
-0.101501 -0.0351563 -0.311035
-0.100037 -0.0351563 -0.311035
-0.0985718 -0.0351563 -0.311035
-0.0968018 -0.0350647 -0.310059
-0.0853882 -0.0351563 -0.311035
-0.0839233 -0.0351563 -0.311035
-0.0814209 -0.0346985 -0.307129
-0.0805054 -0.0349426 -0.309082
-0.0775146 -0.0342407 -0.302979
-0.0722656 -0.0338135 -0.299072
-0.0706177 -0.0336914 -0.298096
-0.0689697 -0.0335693 -0.297119
-0.0678101 -0.0336914 -0.298096
-0.0664063 -0.0336914 -0.298096
-0.0650024 -0.0336914 -0.298096
-0.0438843 -0.0346985 -0.307129
-0.0424194 -0.0346985 -0.307129
-0.0412598 -0.0349426 -0.309082
-0.039917 -0.0350647 -0.310059
-0.0386047 -0.0351563 -0.311035
-0.0371399 -0.0351563 -0.311035
-0.0357971 -0.0352783 -0.312012
-0.0344238 -0.0354004 -0.312988
-0.0330505 -0.0354919 -0.314209
-0.0316772 -0.035614 -0.315186
-0.0302124 -0.035614 -0.315186
-0.0288239 -0.0357361 -0.316162
-0.0273285 -0.0357361 -0.316162
-0.0260162 -0.0359497 -0.318115
0.0393066 -0.0354919 -0.314209
0.0406494 -0.0354004 -0.312988
0.0421143 -0.0354004 -0.312988
0.0436096 -0.0354004 -0.312988
0.0449219 -0.0352783 -0.312012
0.0462341 -0.0351563 -0.311035
0.0475464 -0.0350647 -0.310059
0.0488586 -0.0349426 -0.309082
0.0498352 -0.0346069 -0.306152
0.0509338 -0.0343628 -0.303955
0.0521851 -0.0342407 -0.302979
0.0532532 -0.0340271 -0.301025
0.0544739 -0.033905 -0.300049
0.0559082 -0.033905 -0.300049
0.0591125 -0.0341492 -0.302002
0.0605469 -0.0341492 -0.302002
0.0621643 -0.0342407 -0.302979
0.0637817 -0.0343628 -0.303955
0.0654297 -0.0344849 -0.305176
0.0673218 -0.0346985 -0.307129
0.0689697 -0.0348206 -0.308105
0.0706787 -0.0349426 -0.309082
0.0723267 -0.0350647 -0.310059
0.0740356 -0.0351563 -0.311035
0.0755005 -0.0351563 -0.311035
0.0769653 -0.0351563 -0.311035
0.078186 -0.0350647 -0.310059
0.0796509 -0.0350647 -0.310059
0.0808105 -0.0349426 -0.309082
0.0820313 -0.0348206 -0.308105
0.100708 -0.0352783 -0.312012
0.102173 -0.0352783 -0.312012
0.103638 -0.0352783 -0.312012
0.105103 -0.0352783 -0.312012
0.106567 -0.0352783 -0.312012
0.108032 -0.0352783 -0.312012
0.109497 -0.0352783 -0.312012
0.110962 -0.0352783 -0.312012
0.112793 -0.0354004 -0.312988
0.114258 -0.0354004 -0.312988
0.115784 -0.0354004 -0.312988
0.122986 -0.0349426 -0.309082
0.124878 -0.0350647 -0.310059
0.126709 -0.0351563 -0.311035
0.12854 -0.0352783 -0.312012
0.130005 -0.0352783 -0.312012
0.131104 -0.0351563 -0.311035
0.143311 -0.0335693 -0.297119
0.144287 -0.0334473 -0.296143
0.14563 -0.0334473 -0.296143
0.146484 -0.0333557 -0.294922
0.147949 -0.0333557 -0.294922
0.14978 -0.0334473 -0.296143
0.151245 -0.0334473 -0.296143
0.153076 -0.0335693 -0.297119
0.153931 -0.0334473 -0.296143
0.15332 -0.03302 -0.291992
0.153564 -0.0327759 -0.290039
0.156006 -0.03302 -0.291992
0.161743 -0.033905 -0.300049
0.164185 -0.0341492 -0.302002
0.166748 -0.0343628 -0.303955
0.168213 -0.0343628 -0.303955
0.169556 -0.0343628 -0.303955
0.165283 -0.0318604 -0.281982
0.166016 -0.0317688 -0.281006
0.167236 -0.0317688 -0.281006
0.168579 -0.0317688 -0.281006
0.169922 -0.0317688 -0.281006
0.171265 -0.0317688 -0.281006
0.171997 -0.0316467 -0.280029
0.17334 -0.0316467 -0.280029
0.174561 -0.0316467 -0.280029
0.175903 -0.0316467 -0.280029
0.176636 -0.0315247 -0.279053
0.177856 -0.0315247 -0.279053
0.17981 -0.0316467 -0.280029
0.181885 -0.0317688 -0.281006
0.183838 -0.0318604 -0.281982
0.185791 -0.0319824 -0.282959
0.188477 -0.0322266 -0.284912
0.19043 -0.0323181 -0.285889
0.192505 -0.0324402 -0.287109
0.193848 -0.0324402 -0.287109
0.195923 -0.0325623 -0.288086
0.197266 -0.0325623 -0.288086
0.198608 -0.0325623 -0.288086
0.199951 -0.0325623 -0.288086
0.209717 -0.0334473 -0.296143
0.210327 -0.0333557 -0.294922
0.212524 -0.0334473 -0.296143
0.213867 -0.0334473 -0.296143
0.21521 -0.0334473 -0.296143
0.215942 -0.0333557 -0.294922
0.216553 -0.0332336 -0.293945
0.217896 -0.0332336 -0.293945
0.21936 -0.0332336 -0.293945
0.22583 -0.0327759 -0.290039
0.228027 -0.0328979 -0.291016
0.22937 -0.0328979 -0.291016
0.22998 -0.0327759 -0.290039
0.230591 -0.0326538 -0.289063
0.231934 -0.0326538 -0.289063
0.250488 -0.0333557 -0.294922
0.27832 -0.0343628 -0.303955
0.276855 -0.0340271 -0.301025
0.27832 -0.0340271 -0.301025
0.278809 -0.033905 -0.300049
0.280273 -0.033905 -0.300049
0.281738 -0.033905 -0.300049
0.281982 -0.0338135 -0.299072
0.283447 -0.0338135 -0.299072
0.284912 -0.0338135 -0.299072
0.286377 -0.0338135 -0.299072
0.287598 -0.0338135 -0.299072
0.288086 -0.0336914 -0.298096
0.289551 -0.0336914 -0.298096
0.291016 -0.0336914 -0.298096
-0.204224 -0.0359192 -0.305176
-0.204224 -0.0361633 -0.307129
-0.203369 -0.0362854 -0.308105
-0.201904 -0.0362854 -0.308105
-0.201172 -0.036377 -0.309082
-0.200317 -0.036499 -0.310059
-0.198853 -0.036499 -0.310059
-0.197388 -0.036499 -0.310059
-0.196655 -0.0366211 -0.311035
-0.19519 -0.0366211 -0.311035
-0.194336 -0.0367432 -0.312012
-0.194092 -0.0369873 -0.314209
-0.193237 -0.0371094 -0.315186
-0.192383 -0.0372314 -0.316162
-0.193848 -0.0378113 -0.321045
-0.194214 -0.0381775 -0.324219
-0.193237 -0.038269 -0.325195
-0.193481 -0.0386353 -0.328125
-0.191895 -0.0386353 -0.328125
-0.19104 -0.0387573 -0.329102
-0.190063 -0.0388794 -0.330078
-0.189087 -0.0390015 -0.331055
-0.1875 -0.0390015 -0.331055
-0.163696 -0.0361633 -0.307129
-0.162231 -0.0361633 -0.307129
-0.160889 -0.0361633 -0.307129
-0.159424 -0.0361633 -0.307129
-0.157471 -0.0360413 -0.306152
-0.155518 -0.0359192 -0.305176
-0.153564 -0.0357971 -0.303955
-0.151611 -0.035675 -0.302979
-0.149658 -0.035553 -0.302002
-0.148315 -0.035553 -0.302002
-0.145874 -0.0353394 -0.300049
-0.144409 -0.0353394 -0.300049
-0.142578 -0.0352173 -0.299072
-0.141113 -0.0352173 -0.299072
-0.139282 -0.0350952 -0.298096
-0.137817 -0.0350952 -0.298096
-0.136475 -0.0350952 -0.298096
-0.135498 -0.0352173 -0.299072
-0.134155 -0.0352173 -0.299072
-0.133179 -0.0353394 -0.300049
-0.131714 -0.0353394 -0.300049
-0.127563 -0.0353394 -0.300049
-0.125732 -0.0352173 -0.299072
-0.124329 -0.0352173 -0.299072
-0.122498 -0.0350952 -0.298096
-0.121094 -0.0350952 -0.298096
-0.119263 -0.0349731 -0.297119
-0.117493 -0.0348511 -0.296143
-0.115295 -0.0346069 -0.293945
-0.113525 -0.0344849 -0.292969
-0.113403 -0.0353394 -0.300049
-0.112854 -0.036499 -0.310059
-0.111755 -0.0366211 -0.311035
-0.110657 -0.0367432 -0.312012
-0.109192 -0.0367432 -0.312012
-0.107727 -0.0367432 -0.312012
-0.106262 -0.0367432 -0.312012
-0.104797 -0.0367432 -0.312012
-0.102966 -0.0366211 -0.311035
-0.101501 -0.0366211 -0.311035
-0.100037 -0.0366211 -0.311035
-0.0982666 -0.036499 -0.310059
-0.0923462 -0.0359192 -0.305176
-0.0874634 -0.035675 -0.302979
-0.0883179 -0.0366211 -0.311035
-0.086853 -0.0366211 -0.311035
-0.085144 -0.036499 -0.310059
-0.0836792 -0.036499 -0.310059
-0.0790405 -0.0350952 -0.298096
-0.0776367 -0.0350952 -0.298096
-0.0756836 -0.0348511 -0.296143
-0.0740356 -0.034729 -0.294922
-0.0726929 -0.034729 -0.294922
-0.0715332 -0.0348511 -0.296143
-0.0703735 -0.0349731 -0.297119
-0.0689697 -0.0349731 -0.297119
-0.0675659 -0.0349731 -0.297119
-0.0664063 -0.0350952 -0.298096
-0.0650024 -0.0350952 -0.298096
-0.0437317 -0.0360413 -0.306152
-0.0424194 -0.0361633 -0.307129
-0.0409851 -0.0361633 -0.307129
-0.0396729 -0.0362854 -0.308105
-0.0384827 -0.036499 -0.310059
-0.0370178 -0.036499 -0.310059
-0.0357971 -0.0367432 -0.312012
-0.0344238 -0.0368652 -0.312988
-0.032959 -0.0368652 -0.312988
-0.0315857 -0.0369873 -0.314209
-0.0301056 -0.0369873 -0.314209
-0.0287323 -0.0371094 -0.315186
-0.0273285 -0.0372314 -0.316162
-0.0258484 -0.0372314 -0.316162
0.0509338 -0.0357971 -0.303955
0.0523682 -0.0357971 -0.303955
0.0534363 -0.035553 -0.302002
0.0542908 -0.0352173 -0.299072
0.0557251 -0.0352173 -0.299072
0.0567322 -0.0349731 -0.297119
0.0585327 -0.0352173 -0.299072
0.0605469 -0.035553 -0.302002
0.0619507 -0.035553 -0.302002
0.0635986 -0.035675 -0.302979
0.0654297 -0.0359192 -0.305176
0.0670776 -0.0360413 -0.306152
0.0689697 -0.0362854 -0.308105
0.0706787 -0.036377 -0.309082
0.0723267 -0.036499 -0.310059
0.0737915 -0.036499 -0.310059
0.0755005 -0.0366211 -0.311035
0.0769653 -0.0366211 -0.311035
0.078186 -0.036499 -0.310059
0.0796509 -0.036499 -0.310059
0.0808105 -0.036377 -0.309082
0.0820313 -0.0362854 -0.308105
0.103333 -0.0325012 -0.275879
0.104248 -0.0323792 -0.274902
0.107605 -0.0325928 -0.276855
0.126343 -0.0334473 -0.283936
0.128174 -0.0335388 -0.284912
0.143311 -0.0349731 -0.297119
0.144287 -0.0348511 -0.296143
0.14563 -0.0348511 -0.296143
0.146484 -0.034729 -0.294922
0.147949 -0.034729 -0.294922
0.149292 -0.034729 -0.294922
0.14502 -0.0334473 -0.283936
0.146362 -0.0334473 -0.283936
0.147217 -0.0333252 -0.282959
0.147949 -0.0332031 -0.281982
0.148804 -0.0330811 -0.281006
0.149048 -0.0328369 -0.279053
0.150391 -0.0328369 -0.279053
0.151123 -0.0327148 -0.278076
0.152954 -0.0328369 -0.279053
0.164673 -0.0330811 -0.281006
0.166016 -0.0330811 -0.281006
0.167236 -0.0330811 -0.281006
0.168579 -0.0330811 -0.281006
0.169922 -0.0330811 -0.281006
0.170654 -0.032959 -0.280029
0.171997 -0.032959 -0.280029
0.17334 -0.032959 -0.280029
0.174561 -0.032959 -0.280029
0.175293 -0.0328369 -0.279053
0.176636 -0.0328369 -0.279053
0.177856 -0.0328369 -0.279053
0.179199 -0.0328369 -0.279053
0.181152 -0.032959 -0.280029
0.183105 -0.0330811 -0.281006
0.185181 -0.0332031 -0.281982
0.187134 -0.0333252 -0.282959
0.189819 -0.0335388 -0.284912
0.191772 -0.0336609 -0.285889
0.193848 -0.033783 -0.287109
0.19519 -0.033783 -0.287109
0.197266 -0.033905 -0.288086
0.198608 -0.033905 -0.288086
0.199951 -0.033905 -0.288086
0.202026 -0.0340271 -0.289063
0.204102 -0.0341492 -0.290039
0.20752 -0.0344849 -0.292969
0.209595 -0.0346069 -0.293945
0.21106 -0.0346069 -0.293945
0.213135 -0.034729 -0.294922
0.214478 -0.034729 -0.294922
0.21521 -0.0346069 -0.293945
0.21582 -0.0344849 -0.292969
0.217163 -0.0344849 -0.292969
0.217773 -0.0343933 -0.291992
0.219971 -0.0344849 -0.292969
0.22583 -0.0341492 -0.290039
0.227295 -0.0341492 -0.290039
0.228638 -0.0341492 -0.290039
0.229126 -0.0340271 -0.289063
0.230591 -0.0340271 -0.289063
0.231934 -0.0340271 -0.289063
0.232422 -0.033905 -0.288086
0.278809 -0.0353394 -0.300049
0.279297 -0.0352173 -0.299072
0.280762 -0.0352173 -0.299072
0.281982 -0.0352173 -0.299072
0.283447 -0.0352173 -0.299072
0.284912 -0.0352173 -0.299072
0.286377 -0.0352173 -0.299072
0.286865 -0.0350952 -0.298096
0.289063 -0.0352173 -0.299072
0.289551 -0.0350952 -0.298096
-0.204224 -0.0373535 -0.305176
-0.203491 -0.0374756 -0.306152
-0.202759 -0.0375977 -0.307129
-0.201294 -0.0375977 -0.307129
-0.200439 -0.0377197 -0.308105
-0.199707 -0.0378418 -0.309082
-0.198242 -0.0378418 -0.309082
-0.197388 -0.0379639 -0.310059
-0.195923 -0.0379639 -0.310059
-0.19519 -0.0380859 -0.311035
-0.193726 -0.0380859 -0.311035
-0.193481 -0.0383301 -0.312988
-0.192627 -0.0384521 -0.314209
-0.191162 -0.0384521 -0.314209
-0.163696 -0.0375977 -0.307129
-0.162231 -0.0375977 -0.307129
-0.160889 -0.0375977 -0.307129
-0.159424 -0.0375977 -0.307129
-0.157471 -0.0374756 -0.306152
-0.155518 -0.0373535 -0.305176
-0.153564 -0.0372314 -0.303955
-0.151611 -0.0371094 -0.302979
-0.149658 -0.0369873 -0.302002
-0.147827 -0.0368652 -0.301025
-0.145874 -0.0367432 -0.300049
-0.143921 -0.0366211 -0.299072
-0.142578 -0.0366211 -0.299072
-0.140625 -0.036499 -0.298096
-0.139282 -0.036499 -0.298096
-0.137817 -0.036499 -0.298096
-0.136475 -0.036499 -0.298096
-0.135132 -0.036499 -0.298096
-0.134155 -0.0366211 -0.299072
-0.13269 -0.0366211 -0.299072
-0.131714 -0.0367432 -0.300049
-0.130371 -0.0367432 -0.300049
-0.129761 -0.0369873 -0.302002
-0.127563 -0.0367432 -0.300049
-0.125732 -0.0366211 -0.299072
-0.123901 -0.036499 -0.298096
-0.119202 -0.0355225 -0.290039
-0.118225 -0.0356445 -0.291016
-0.116882 -0.0356445 -0.291016
-0.115479 -0.0356445 -0.291016
-0.114502 -0.0357666 -0.291992
-0.113159 -0.0357666 -0.291992
-0.112549 -0.0360107 -0.293945
-0.111511 -0.0361328 -0.294922
-0.110657 -0.038208 -0.312012
-0.109192 -0.038208 -0.312012
-0.107727 -0.038208 -0.312012
-0.106262 -0.038208 -0.312012
-0.104431 -0.0380859 -0.311035
-0.102966 -0.0380859 -0.311035
-0.0932007 -0.0360107 -0.293945
-0.0921021 -0.0361328 -0.294922
-0.0751953 -0.0360107 -0.293945
-0.0737915 -0.0360107 -0.293945
-0.0724487 -0.0360107 -0.293945
-0.0715332 -0.0362549 -0.296143
-0.0701294 -0.0362549 -0.296143
-0.0687256 -0.0362549 -0.296143
-0.0675659 -0.036377 -0.297119
-0.0661621 -0.036377 -0.297119
-0.0647583 -0.036377 -0.297119
-0.0634155 -0.036377 -0.297119
-0.0422974 -0.0374756 -0.306152
-0.0409851 -0.0375977 -0.307129
-0.0396729 -0.0377197 -0.308105
-0.0370178 -0.0379639 -0.310059
0.0410156 -0.0348816 -0.284912
0.0523682 -0.0362549 -0.296143
0.0539551 -0.036377 -0.297119
0.0553284 -0.036377 -0.297119
0.0567322 -0.036377 -0.297119
0.058136 -0.036377 -0.297119
0.0599365 -0.0366211 -0.299072
0.0619507 -0.0369873 -0.302002
0.0635986 -0.0371094 -0.302979
0.0651855 -0.0372314 -0.303955
0.0668945 -0.0373535 -0.305176
0.0723267 -0.0379639 -0.310059
0.0737915 -0.0379639 -0.310059
0.0826416 -0.0328064 -0.267822
0.0839233 -0.0328064 -0.267822
0.0852051 -0.0328064 -0.267822
0.0864258 -0.0328064 -0.267822
0.102051 -0.033783 -0.275879
0.102966 -0.0336609 -0.274902
0.104248 -0.0336609 -0.274902
0.10553 -0.0336609 -0.274902
0.106812 -0.0336609 -0.274902
0.108521 -0.033783 -0.275879
0.122375 -0.0343933 -0.281006
0.123718 -0.0343933 -0.281006
0.128174 -0.0348816 -0.284912
0.14502 -0.0347595 -0.283936
0.145874 -0.0346375 -0.282959
0.146729 -0.0345154 -0.281982
0.147461 -0.0343933 -0.281006
0.147705 -0.0341492 -0.279053
0.149048 -0.0341492 -0.279053
0.14978 -0.0340271 -0.278076
0.150513 -0.033905 -0.276855
0.151367 -0.033783 -0.275879
0.163452 -0.0341492 -0.279053
0.165405 -0.0342712 -0.280029
0.166748 -0.0342712 -0.280029
0.167969 -0.0342712 -0.280029
0.169312 -0.0342712 -0.280029
0.170654 -0.0342712 -0.280029
0.171997 -0.0342712 -0.280029
0.17334 -0.0342712 -0.280029
0.17395 -0.0341492 -0.279053
0.175293 -0.0341492 -0.279053
0.176636 -0.0341492 -0.279053
0.177856 -0.0341492 -0.279053
0.179199 -0.0341492 -0.279053
0.180542 -0.0341492 -0.279053
0.182495 -0.0342712 -0.280029
0.184448 -0.0343933 -0.281006
0.186523 -0.0345154 -0.281982
0.189819 -0.0348816 -0.284912
0.191772 -0.0350037 -0.285889
0.193848 -0.0351257 -0.287109
0.19519 -0.0351257 -0.287109
0.196533 -0.0351257 -0.287109
0.198608 -0.0352478 -0.288086
0.199951 -0.0352478 -0.288086
0.201294 -0.0352478 -0.288086
0.213745 -0.0357666 -0.291992
0.215088 -0.0357666 -0.291992
0.216431 -0.0357666 -0.291992
0.22644 -0.0354004 -0.289063
0.227783 -0.0354004 -0.289063
0.229126 -0.0354004 -0.289063
0.230591 -0.0354004 -0.289063
0.231079 -0.0352478 -0.288086
0.232422 -0.0352478 -0.288086
0.260254 -0.0328064 -0.267822
0.261475 -0.0328064 -0.267822
-0.204224 -0.0387878 -0.305176
-0.203491 -0.0389099 -0.306152
-0.202026 -0.0389099 -0.306152
-0.200684 -0.0389099 -0.306152
-0.199829 -0.039032 -0.307129
-0.199097 -0.0391846 -0.308105
-0.198242 -0.0393066 -0.309082
-0.196777 -0.0393066 -0.309082
-0.195313 -0.0393066 -0.309082
-0.194458 -0.0394287 -0.310059
-0.193726 -0.0395508 -0.311035
-0.192261 -0.0395508 -0.311035
-0.190796 -0.0395508 -0.311035
-0.189941 -0.0396729 -0.312012
-0.160034 -0.0362244 -0.284912
-0.160278 -0.0366211 -0.288086
-0.153564 -0.0359802 -0.282959
-0.151611 -0.0358582 -0.281982
-0.14978 -0.0357361 -0.281006
-0.147949 -0.0355835 -0.280029
-0.160278 -0.0389099 -0.306152
-0.158813 -0.0389099 -0.306152
-0.15686 -0.0387878 -0.305176
-0.152466 -0.0383911 -0.302002
-0.151123 -0.0383911 -0.302002
-0.14917 -0.038269 -0.301025
-0.147217 -0.038147 -0.300049
-0.145386 -0.0380249 -0.299072
-0.143921 -0.0380249 -0.299072
-0.142578 -0.0380249 -0.299072
-0.140625 -0.0379028 -0.298096
-0.139282 -0.0379028 -0.298096
-0.137817 -0.0379028 -0.298096
-0.136475 -0.0379028 -0.298096
-0.135132 -0.0379028 -0.298096
-0.133667 -0.0379028 -0.298096
-0.132324 -0.0379028 -0.298096
-0.131348 -0.0380249 -0.299072
-0.125488 -0.0367432 -0.289063
-0.122864 -0.0367432 -0.289063
-0.121887 -0.0368652 -0.290039
-0.120972 -0.0369873 -0.291016
-0.119202 -0.0368652 -0.290039
-0.117798 -0.0368652 -0.290039
-0.116455 -0.0368652 -0.290039
-0.115112 -0.0368652 -0.290039
-0.114136 -0.0369873 -0.291016
-0.112732 -0.0369873 -0.291016
-0.111755 -0.0371399 -0.291992
-0.0829468 -0.0348206 -0.273926
-0.0810547 -0.0345764 -0.271973
-0.0797729 -0.0345764 -0.271973
-0.0776367 -0.0353394 -0.278076
-0.0758057 -0.0357361 -0.281006
-0.0745239 -0.0357361 -0.281006
-0.0734253 -0.0358582 -0.281982
-0.0720825 -0.0358582 -0.281982
-0.0737915 -0.037384 -0.293945
-0.0724487 -0.037384 -0.293945
-0.0712891 -0.0375061 -0.294922
-0.0701294 -0.0376282 -0.296143
-0.0687256 -0.0376282 -0.296143
-0.0673218 -0.0376282 -0.296143
-0.0661621 -0.0377808 -0.297119
-0.0647583 -0.0377808 -0.297119
0.0396729 -0.0362244 -0.284912
0.0410156 -0.0362244 -0.284912
0.058136 -0.0377808 -0.297119
0.0597229 -0.0379028 -0.298096
0.0613403 -0.0380249 -0.299072
0.0629272 -0.038147 -0.300049
0.0826416 -0.0340576 -0.267822
0.0839233 -0.0340576 -0.267822
0.0852051 -0.0340576 -0.267822
0.0864258 -0.0340576 -0.267822
0.101624 -0.0349731 -0.274902
0.102966 -0.0349731 -0.274902
0.104248 -0.0349731 -0.274902
0.105164 -0.0348206 -0.273926
0.106445 -0.0348206 -0.273926
0.14563 -0.0355835 -0.280029
0.146973 -0.0355835 -0.280029
0.147705 -0.0354614 -0.279053
0.14856 -0.0353394 -0.278076
0.149292 -0.0352173 -0.276855
0.150024 -0.0350952 -0.275879
0.151367 -0.0350952 -0.275879
0.149902 -0.0344543 -0.270996
0.150513 -0.0343323 -0.27002
0.163452 -0.0354614 -0.279053
0.165405 -0.0355835 -0.280029
0.166748 -0.0355835 -0.280029
0.167969 -0.0355835 -0.280029
0.169312 -0.0355835 -0.280029
0.170654 -0.0355835 -0.280029
0.171997 -0.0355835 -0.280029
0.172607 -0.0354614 -0.279053
0.17395 -0.0354614 -0.279053
0.175293 -0.0354614 -0.279053
0.176636 -0.0354614 -0.279053
0.177246 -0.0353394 -0.278076
0.178589 -0.0353394 -0.278076
0.180542 -0.0354614 -0.279053
0.181885 -0.0354614 -0.279053
0.183105 -0.0354614 -0.279053
0.184448 -0.0354614 -0.279053
0.196655 -0.0332947 -0.261963
0.197876 -0.0332947 -0.261963
0.199097 -0.0332947 -0.261963
0.200317 -0.0332947 -0.261963
0.202271 -0.0334167 -0.262939
0.202759 -0.0332947 -0.261963
0.256836 -0.0339355 -0.266846
0.259033 -0.0340576 -0.267822
0.260254 -0.0340576 -0.267822
0.261475 -0.0340576 -0.267822
-0.203613 -0.0401001 -0.303955
-0.202881 -0.0402222 -0.305176
-0.201416 -0.0402222 -0.305176
-0.200684 -0.0403442 -0.306152
-0.199219 -0.0403442 -0.306152
-0.198364 -0.0404968 -0.307129
-0.196899 -0.0404968 -0.307129
-0.195557 -0.0404968 -0.307129
-0.193848 -0.040741 -0.309082
-0.171143 -0.0365295 -0.276855
-0.1698 -0.0365295 -0.276855
-0.168457 -0.0365295 -0.276855
-0.167236 -0.0365295 -0.276855
-0.165894 -0.0365295 -0.276855
-0.164551 -0.0365295 -0.276855
-0.16394 -0.0366516 -0.278076
-0.163208 -0.0367737 -0.279053
-0.161865 -0.0367737 -0.279053
-0.161133 -0.0369263 -0.280029
-0.1604 -0.0370483 -0.281006
-0.159668 -0.0371704 -0.281982
-0.158813 -0.037323 -0.282959
-0.157593 -0.037323 -0.282959
-0.15564 -0.0371704 -0.281982
-0.154297 -0.0371704 -0.281982
-0.152466 -0.0370483 -0.281006
-0.151123 -0.0370483 -0.281006
-0.14978 -0.0370483 -0.281006
-0.145264 -0.0369263 -0.280029
-0.143433 -0.0393066 -0.298096
-0.14209 -0.0393066 -0.298096
-0.140625 -0.0393066 -0.298096
-0.139282 -0.0393066 -0.298096
-0.137451 -0.0391541 -0.297119
-0.135986 -0.0391541 -0.297119
-0.134644 -0.0391541 -0.297119
-0.133179 -0.0391541 -0.297119
-0.131836 -0.0391541 -0.297119
-0.125122 -0.0379639 -0.288086
-0.124207 -0.0381165 -0.289063
-0.122864 -0.0381165 -0.289063
-0.121521 -0.0381165 -0.289063
-0.120117 -0.0381165 -0.289063
-0.118774 -0.0381165 -0.289063
-0.117798 -0.0382385 -0.290039
-0.116455 -0.0382385 -0.290039
-0.115112 -0.0382385 -0.290039
-0.113708 -0.0382385 -0.290039
-0.112366 -0.0382385 -0.290039
-0.111755 -0.0385132 -0.291992
-0.0830078 -0.0350647 -0.265869
-0.0820923 -0.0351868 -0.266846
-0.0811157 -0.0353394 -0.267822
-0.0804443 -0.0355835 -0.27002
-0.0791626 -0.0355835 -0.27002
-0.0784912 -0.0358582 -0.271973
-0.0775146 -0.0359802 -0.272949
-0.0770874 -0.036377 -0.275879
-0.0751953 -0.0361328 -0.273926
-0.0736694 -0.0359802 -0.272949
-0.0723877 -0.0359802 -0.272949
-0.071106 -0.0359802 -0.272949
-0.069519 -0.0358582 -0.271973
-0.0685425 -0.0359802 -0.272949
-0.0672607 -0.0359802 -0.272949
-0.0621033 -0.0359802 -0.272949
-0.0610657 -0.0361328 -0.273926
-0.0334778 -0.0355835 -0.27002
-0.0323486 -0.0357361 -0.270996
-0.0310669 -0.0357361 -0.270996
-0.0298004 -0.0357361 -0.270996
0.0396729 -0.0375671 -0.284912
0.0410156 -0.0375671 -0.284912
0.0826416 -0.0353394 -0.267822
0.0839233 -0.0353394 -0.267822
0.0852051 -0.0353394 -0.267822
0.0864258 -0.0353394 -0.267822
0.100342 -0.0362549 -0.274902
0.101624 -0.0362549 -0.274902
0.1026 -0.0361328 -0.273926
0.103882 -0.0361328 -0.273926
0.105164 -0.0361328 -0.273926
0.106445 -0.0361328 -0.273926
0.148682 -0.036377 -0.275879
0.150024 -0.036377 -0.275879
0.146362 -0.0351868 -0.266846
0.147095 -0.0350647 -0.265869
0.147217 -0.03479 -0.263916
0.150391 -0.034668 -0.262939
0.152222 -0.03479 -0.263916
0.153442 -0.03479 -0.263916
0.158203 -0.0355835 -0.27002
0.154175 -0.0341187 -0.258789
0.154785 -0.0339966 -0.257813
0.156006 -0.0339966 -0.257813
0.170654 -0.0369263 -0.280029
0.171997 -0.0369263 -0.280029
0.172607 -0.0367737 -0.279053
0.17395 -0.0367737 -0.279053
0.175293 -0.0367737 -0.279053
0.175903 -0.0366516 -0.278076
0.177246 -0.0366516 -0.278076
0.178589 -0.0366516 -0.278076
0.179932 -0.0366516 -0.278076
0.181152 -0.0366516 -0.278076
0.183105 -0.0367737 -0.279053
0.183838 -0.0366516 -0.278076
0.184448 -0.0365295 -0.276855
0.180054 -0.0337219 -0.255859
0.181274 -0.0337219 -0.255859
0.182495 -0.0337219 -0.255859
0.184326 -0.0338745 -0.256836
0.193115 -0.03479 -0.263916
0.195313 -0.0345459 -0.261963
0.196655 -0.0345459 -0.261963
0.197876 -0.0345459 -0.261963
0.198242 -0.0343933 -0.260986
0.199585 -0.0343933 -0.260986
0.199951 -0.0342712 -0.26001
0.201172 -0.0342712 -0.26001
0.20166 -0.0341187 -0.258789
0.202881 -0.0341187 -0.258789
0.204102 -0.0341187 -0.258789
0.204956 -0.0338745 -0.256836
0.206177 -0.0338745 -0.256836
0.207275 -0.0338745 -0.256836
0.208496 -0.0338745 -0.256836
0.209717 -0.0338745 -0.256836
0.210938 -0.0338745 -0.256836
0.212158 -0.0338745 -0.256836
0.212524 -0.0337219 -0.255859
0.213745 -0.0337219 -0.255859
0.214111 -0.0335999 -0.254883
0.216187 -0.0337219 -0.255859
0.216553 -0.0335999 -0.254883
0.218506 -0.0337219 -0.255859
0.230591 -0.0337219 -0.255859
0.231812 -0.0337219 -0.255859
0.233032 -0.0337219 -0.255859
0.256836 -0.0351868 -0.266846
0.259033 -0.0353394 -0.267822
0.260254 -0.0353394 -0.267822
0.261475 -0.0353394 -0.267822
-0.187134 -0.0368652 -0.27002
-0.185791 -0.0368652 -0.27002
-0.18457 -0.0368652 -0.27002
-0.182007 -0.0368652 -0.27002
-0.203613 -0.0415344 -0.303955
-0.202148 -0.0415344 -0.303955
-0.201416 -0.0416565 -0.305176
-0.199951 -0.0416565 -0.305176
-0.199219 -0.0418091 -0.306152
-0.171143 -0.0378113 -0.276855
-0.1698 -0.0378113 -0.276855
-0.168457 -0.0378113 -0.276855
-0.167236 -0.0378113 -0.276855
-0.165894 -0.0378113 -0.276855
-0.164551 -0.0378113 -0.276855
-0.16394 -0.0379639 -0.278076
-0.162598 -0.0379639 -0.278076
-0.161865 -0.0380859 -0.279053
-0.161133 -0.0382385 -0.280029
-0.15979 -0.0382385 -0.280029
-0.159058 -0.0383606 -0.281006
-0.158325 -0.0385132 -0.281982
-0.156982 -0.0385132 -0.281982
-0.15564 -0.0385132 -0.281982
-0.154297 -0.0385132 -0.281982
-0.152466 -0.0383606 -0.281006
-0.151123 -0.0383606 -0.281006
-0.14978 -0.0383606 -0.281006
-0.147949 -0.0382385 -0.280029
-0.146606 -0.0382385 -0.280029
-0.145264 -0.0382385 -0.280029
-0.137451 -0.0405579 -0.297119
-0.135986 -0.0405579 -0.297119
-0.134644 -0.0405579 -0.297119
-0.131836 -0.0401611 -0.293945
-0.123779 -0.0393372 -0.288086
-0.122437 -0.0393372 -0.288086
-0.120667 -0.0391846 -0.287109
-0.11969 -0.0393372 -0.288086
-0.118774 -0.0394592 -0.289063
-0.117004 -0.0393372 -0.288086
-0.116028 -0.0394592 -0.289063
-0.114685 -0.0394592 -0.289063
-0.113708 -0.0396118 -0.290039
-0.112366 -0.0396118 -0.290039
-0.0836182 -0.0360413 -0.263916
-0.0827026 -0.0361633 -0.264893
-0.0817871 -0.0363159 -0.265869
-0.0805054 -0.0363159 -0.265869
-0.0795898 -0.036438 -0.266846
-0.0783081 -0.036438 -0.266846
-0.0773315 -0.0365906 -0.267822
-0.0760498 -0.0365906 -0.267822
-0.0744019 -0.0369873 -0.270996
-0.0733643 -0.0371399 -0.271973
-0.0720825 -0.0371399 -0.271973
-0.0708008 -0.0371399 -0.271973
-0.069519 -0.0371399 -0.271973
-0.0654907 -0.0369873 -0.270996
-0.064209 -0.0369873 -0.270996
-0.0629272 -0.0369873 -0.270996
-0.0618896 -0.0371399 -0.271973
-0.0608215 -0.037262 -0.272949
-0.0357666 -0.0365906 -0.267822
-0.0346375 -0.0367126 -0.269043
-0.0334778 -0.0368652 -0.27002
-0.0322266 -0.0368652 -0.27002
-0.0309601 -0.0368652 -0.27002
-0.029129 -0.0361633 -0.264893
-0.0277863 -0.0360413 -0.263916
-0.0264435 -0.0358887 -0.262939
-0.0252075 -0.0358887 -0.262939
0.0826416 -0.0365906 -0.267822
0.0839233 -0.0365906 -0.267822
0.0852051 -0.0365906 -0.267822
0.0928955 -0.0352173 -0.257813
0.0941162 -0.0352173 -0.257813
0.0949707 -0.0350647 -0.256836
0.0961914 -0.0350647 -0.256836
0.0969849 -0.0349426 -0.255859
0.0982056 -0.0349426 -0.255859
0.098999 -0.03479 -0.254883
0.0998535 -0.034668 -0.253906
0.115051 -0.0349426 -0.255859
0.131592 -0.0361633 -0.264893
0.141357 -0.0352173 -0.257813
0.142578 -0.0352173 -0.257813
0.143799 -0.0352173 -0.257813
0.14502 -0.0352173 -0.257813
0.14624 -0.0352173 -0.257813
0.151733 -0.0350647 -0.256836
0.153564 -0.0352173 -0.257813
0.154785 -0.0352173 -0.257813
0.156006 -0.0352173 -0.257813
0.156616 -0.0350647 -0.256836
0.168701 -0.0341187 -0.249878
0.175049 -0.034668 -0.253906
0.175537 -0.0345154 -0.25293
0.17749 -0.034668 -0.253906
0.179321 -0.03479 -0.254883
0.180542 -0.03479 -0.254883
0.181763 -0.03479 -0.254883
0.182983 -0.03479 -0.254883
0.182617 -0.0345154 -0.25293
0.18457 -0.034668 -0.253906
0.186523 -0.03479 -0.254883
0.187744 -0.03479 -0.254883
0.193359 -0.035614 -0.260986
0.193848 -0.0354919 -0.26001
0.195068 -0.0354919 -0.26001
0.197021 -0.035614 -0.260986
0.198242 -0.035614 -0.260986
0.19873 -0.0354919 -0.26001
0.199951 -0.0354919 -0.26001
0.200439 -0.0353394 -0.258789
0.20166 -0.0353394 -0.258789
0.202881 -0.0353394 -0.258789
0.203247 -0.0352173 -0.257813
0.204468 -0.0352173 -0.257813
0.204956 -0.0350647 -0.256836
0.206177 -0.0350647 -0.256836
0.206543 -0.0349426 -0.255859
0.207764 -0.0349426 -0.255859
0.208984 -0.0349426 -0.255859
0.210083 -0.0349426 -0.255859
0.211304 -0.0349426 -0.255859
0.21167 -0.03479 -0.254883
0.212891 -0.03479 -0.254883
0.214111 -0.03479 -0.254883
0.215332 -0.03479 -0.254883
0.216553 -0.03479 -0.254883
0.218506 -0.0349426 -0.255859
0.218872 -0.03479 -0.254883
0.220093 -0.03479 -0.254883
0.230835 -0.03479 -0.254883
0.232056 -0.03479 -0.254883
0.233276 -0.03479 -0.254883
0.232178 -0.0334473 -0.244873
0.259033 -0.0365906 -0.267822
0.260254 -0.0365906 -0.267822
0.261475 -0.0365906 -0.267822
-0.187622 -0.0379944 -0.269043
-0.186401 -0.0379944 -0.269043
-0.185181 -0.0379944 -0.269043
-0.183838 -0.0379944 -0.269043
-0.182617 -0.0379944 -0.269043
-0.172363 -0.0391235 -0.276855
-0.171143 -0.0391235 -0.276855
-0.1698 -0.0391235 -0.276855
-0.168457 -0.0391235 -0.276855
-0.167236 -0.0391235 -0.276855
-0.165894 -0.0391235 -0.276855
-0.164551 -0.0391235 -0.276855
-0.16394 -0.0392761 -0.278076
-0.162598 -0.0392761 -0.278076
-0.161865 -0.0393982 -0.279053
-0.160522 -0.0393982 -0.279053
-0.15979 -0.0395508 -0.280029
-0.159058 -0.0397034 -0.281006
-0.157715 -0.0397034 -0.281006
-0.156982 -0.0398254 -0.281982
-0.155151 -0.0397034 -0.281006
-0.153809 -0.0397034 -0.281006
-0.152466 -0.0397034 -0.281006
-0.151123 -0.0397034 -0.281006
-0.14978 -0.0397034 -0.281006
-0.147949 -0.0395508 -0.280029
-0.146606 -0.0395508 -0.280029
-0.145264 -0.0395508 -0.280029
-0.0848999 -0.0372925 -0.263916
-0.083313 -0.0371399 -0.262939
-0.0823975 -0.0372925 -0.263916
-0.0811768 -0.0372925 -0.263916
-0.0802002 -0.0374146 -0.264893
-0.0792847 -0.0375671 -0.265869
-0.0780029 -0.0375671 -0.265869
-0.0770264 -0.0376892 -0.266846
-0.0758057 -0.0376892 -0.266846
-0.0748291 -0.0378418 -0.267822
-0.0740967 -0.0381165 -0.27002
-0.0731201 -0.038269 -0.270996
-0.0718384 -0.038269 -0.270996
-0.0705566 -0.038269 -0.270996
-0.0692749 -0.038269 -0.270996
-0.067749 -0.0381165 -0.27002
-0.0664673 -0.0381165 -0.27002
-0.0652466 -0.0381165 -0.27002
-0.064209 -0.038269 -0.270996
-0.0629272 -0.038269 -0.270996
-0.0618896 -0.0384216 -0.271973
-0.0608215 -0.0385437 -0.272949
-0.0332336 -0.0378418 -0.267822
-0.0321045 -0.0379944 -0.269043
-0.0306091 -0.0376892 -0.266846
-0.029129 -0.0374146 -0.264893
-0.0276794 -0.0371399 -0.262939
-0.0264435 -0.0371399 -0.262939
-0.025116 -0.0369873 -0.261963
-0.0236969 -0.0367126 -0.26001
0.0430298 -0.0362854 -0.256836
0.04422 -0.0362854 -0.256836
0.0454407 -0.0362854 -0.256836
0.0733032 -0.0351563 -0.248901
0.0744629 -0.0351563 -0.248901
0.0756226 -0.0351563 -0.248901
0.0767822 -0.0351563 -0.248901
0.0776367 -0.0350037 -0.247925
0.0787964 -0.0350037 -0.247925
0.0799561 -0.0350037 -0.247925
0.0925293 -0.0362854 -0.256836
0.09375 -0.0362854 -0.256836
0.0949707 -0.0362854 -0.256836
0.0961914 -0.0362854 -0.256836
0.0969849 -0.0361328 -0.255859
0.0978394 -0.0360107 -0.254883
0.098999 -0.0360107 -0.254883
0.0998535 -0.0358582 -0.253906
0.126099 -0.0358582 -0.253906
0.127319 -0.0358582 -0.253906
0.141357 -0.036438 -0.257813
0.142578 -0.036438 -0.257813
0.143799 -0.036438 -0.257813
0.14502 -0.036438 -0.257813
0.14624 -0.036438 -0.257813
0.151733 -0.0362854 -0.256836
0.152954 -0.0362854 -0.256836
0.154175 -0.0362854 -0.256836
0.155396 -0.0362854 -0.256836
0.156006 -0.0361328 -0.255859
0.156494 -0.0360107 -0.254883
0.157104 -0.0358582 -0.253906
0.16687 -0.0351563 -0.248901
0.168091 -0.0351563 -0.248901
0.169189 -0.0351563 -0.248901
0.17041 -0.0351563 -0.248901
0.170898 -0.0350037 -0.247925
0.17627 -0.0358582 -0.253906
0.178101 -0.0360107 -0.254883
0.177979 -0.0357056 -0.25293
0.17981 -0.0358582 -0.253906
0.180298 -0.0357056 -0.25293
0.180054 -0.0354309 -0.250977
0.180542 -0.0352783 -0.249878
0.181641 -0.0352783 -0.249878
0.182129 -0.0351563 -0.248901
0.182495 -0.0350037 -0.247925
0.194336 -0.0365601 -0.258789
0.195557 -0.0365601 -0.258789
0.196777 -0.0365601 -0.258789
0.19873 -0.0367126 -0.26001
0.199219 -0.0365601 -0.258789
0.200439 -0.0365601 -0.258789
0.20166 -0.0365601 -0.258789
0.202881 -0.0365601 -0.258789
0.203247 -0.036438 -0.257813
0.204468 -0.036438 -0.257813
0.204956 -0.0362854 -0.256836
0.205322 -0.0361328 -0.255859
0.206543 -0.0361328 -0.255859
0.206909 -0.0360107 -0.254883
0.20813 -0.0360107 -0.254883
0.208496 -0.0358582 -0.253906
0.209717 -0.0358582 -0.253906
0.210083 -0.0357056 -0.25293
0.212036 -0.0358582 -0.253906
0.213257 -0.0358582 -0.253906
0.214478 -0.0358582 -0.253906
0.215698 -0.0358582 -0.253906
0.217651 -0.0360107 -0.254883
0.218872 -0.0360107 -0.254883
0.220093 -0.0360107 -0.254883
0.230835 -0.0360107 -0.254883
0.232056 -0.0360107 -0.254883
0.232422 -0.0358582 -0.253906
0.22876 -0.0345764 -0.244873
0.229858 -0.0345764 -0.244873
0.230103 -0.0344543 -0.243896
0.232178 -0.0345764 -0.244873
0.233276 -0.0345764 -0.244873
0.234497 -0.0345764 -0.244873
0.235596 -0.0345764 -0.244873
0.237793 -0.034729 -0.24585
0.238892 -0.034729 -0.24585
-0.197876 -0.0385132 -0.263916
-0.19458 -0.0383606 -0.262939
-0.195801 -0.039093 -0.267822
-0.187622 -0.0392456 -0.269043
-0.186401 -0.0392456 -0.269043
-0.185181 -0.0392456 -0.269043
-0.183838 -0.0392456 -0.269043
-0.182617 -0.0392456 -0.269043
-0.181396 -0.0392456 -0.269043
-0.180054 -0.0392456 -0.269043
-0.172363 -0.0404358 -0.276855
-0.171143 -0.0404358 -0.276855
-0.1698 -0.0404358 -0.276855
-0.168457 -0.0404358 -0.276855
-0.167236 -0.0404358 -0.276855
-0.165894 -0.0404358 -0.276855
-0.164551 -0.0404358 -0.276855
-0.16333 -0.0404358 -0.276855
-0.162598 -0.0405579 -0.278076
-0.161255 -0.0405579 -0.278076
-0.160522 -0.0407104 -0.279053
-0.15979 -0.040863 -0.280029
-0.158447 -0.040863 -0.280029
-0.157227 -0.040863 -0.280029
-0.155273 -0.0407104 -0.279053
-0.154541 -0.040863 -0.280029
-0.153198 -0.040863 -0.280029
-0.151855 -0.040863 -0.280029
-0.150635 -0.040863 -0.280029
-0.149292 -0.040863 -0.280029
-0.147949 -0.040863 -0.280029
-0.129883 -0.0372009 -0.254883
-0.128662 -0.0372009 -0.254883
-0.127441 -0.0372009 -0.254883
-0.126343 -0.0372009 -0.254883
-0.0847778 -0.0379333 -0.26001
-0.0839233 -0.0380859 -0.260986
-0.0830078 -0.0382385 -0.261963
-0.0820923 -0.0383606 -0.262939
-0.0808105 -0.0383606 -0.262939
-0.079895 -0.0385132 -0.263916
-0.0789795 -0.0386658 -0.264893
-0.0776978 -0.0386658 -0.264893
-0.0767822 -0.0388184 -0.265869
-0.0758057 -0.0389709 -0.266846
-0.0748291 -0.039093 -0.267822
-0.0738525 -0.0392456 -0.269043
-0.0728149 -0.0393982 -0.27002
-0.0715942 -0.0393982 -0.27002
-0.0703125 -0.0393982 -0.27002
-0.0690308 -0.0393982 -0.27002
-0.067749 -0.0393982 -0.27002
-0.0664673 -0.0393982 -0.27002
-0.0652466 -0.0393982 -0.27002
-0.0639648 -0.0393982 -0.27002
-0.0629272 -0.0395508 -0.270996
-0.0616455 -0.0395508 -0.270996
-0.0404968 -0.0376282 -0.257813
-0.0392761 -0.0376282 -0.257813
-0.0290222 -0.0385132 -0.263916
-0.0275726 -0.0382385 -0.261963
-0.0262451 -0.0380859 -0.260986
-0.0250092 -0.0380859 -0.260986
-0.0236969 -0.0379333 -0.26001
0.0428467 -0.0373535 -0.255859
0.0440674 -0.0373535 -0.255859
0.0450745 -0.0372009 -0.254883
0.0462952 -0.0372009 -0.254883
0.067749 -0.0358887 -0.24585
0.0692139 -0.0360413 -0.246948
0.0703735 -0.0360413 -0.246948
0.0718384 -0.0361633 -0.247925
0.072998 -0.0361633 -0.247925
0.0744629 -0.0363159 -0.248901
0.0753174 -0.0361633 -0.247925
0.0764771 -0.0361633 -0.247925
0.0776367 -0.0361633 -0.247925
0.0784912 -0.0360413 -0.246948
0.0796509 -0.0360413 -0.246948
0.0808105 -0.0360413 -0.246948
0.081665 -0.0358887 -0.24585
0.0828247 -0.0358887 -0.24585
0.0839233 -0.0358887 -0.24585
0.0899048 -0.0368958 -0.25293
0.0925293 -0.0375061 -0.256836
0.09375 -0.0375061 -0.256836
0.0949707 -0.0375061 -0.256836
0.0958252 -0.0373535 -0.255859
0.0969849 -0.0373535 -0.255859
0.0978394 -0.0372009 -0.254883
0.098999 -0.0372009 -0.254883
0.0998535 -0.0370483 -0.253906
0.101013 -0.0370483 -0.253906
0.141357 -0.0376282 -0.257813
0.142578 -0.0376282 -0.257813
0.143799 -0.0376282 -0.257813
0.14502 -0.0376282 -0.257813
0.14624 -0.0376282 -0.257813
0.151733 -0.0375061 -0.256836
0.152954 -0.0375061 -0.256836
0.154175 -0.0375061 -0.256836
0.154785 -0.0373535 -0.255859
0.156006 -0.0373535 -0.255859
0.156494 -0.0372009 -0.254883
0.157104 -0.0370483 -0.253906
0.16687 -0.0363159 -0.248901
0.167358 -0.0361633 -0.247925
0.168579 -0.0361633 -0.247925
0.169678 -0.0361633 -0.247925
0.170166 -0.0360413 -0.246948
0.17395 -0.0363159 -0.248901
0.178589 -0.0370483 -0.253906
0.179077 -0.0368958 -0.25293
0.178101 -0.0364685 -0.249878
0.179321 -0.0364685 -0.249878
0.17981 -0.0363159 -0.248901
0.180908 -0.0363159 -0.248901
0.182129 -0.0363159 -0.248901
0.182495 -0.0361633 -0.247925
0.183716 -0.0361633 -0.247925
0.196777 -0.0377808 -0.258789
0.197998 -0.0377808 -0.258789
0.199219 -0.0377808 -0.258789
0.200439 -0.0377808 -0.258789
0.200806 -0.0376282 -0.257813
0.203247 -0.0376282 -0.257813
0.203735 -0.0375061 -0.256836
0.204956 -0.0375061 -0.256836
0.206055 -0.0370483 -0.253906
0.207275 -0.0370483 -0.253906
0.208496 -0.0370483 -0.253906
0.208008 -0.0367737 -0.251953
0.210083 -0.0368958 -0.25293
0.211182 -0.0368958 -0.25293
0.213257 -0.0370483 -0.253906
0.213623 -0.0368958 -0.25293
0.215698 -0.0370483 -0.253906
0.218018 -0.0370483 -0.253906
0.21167 -0.0350037 -0.239868
0.214478 -0.0353088 -0.241943
0.215698 -0.0353088 -0.241943
0.216797 -0.0353088 -0.241943
0.226929 -0.0367737 -0.251953
0.22998 -0.0370483 -0.253906
0.231201 -0.0370483 -0.253906
0.231445 -0.0368958 -0.25293
0.228027 -0.0361633 -0.247925
0.227295 -0.0358887 -0.24585
0.227539 -0.0357361 -0.244873
