-0.0137711 0.0036563899 -0.39648399
-0.0118713 0.0036468499 -0.39550799
-0.0099868802 0.0036373099 -0.39453101
-0.0081100501 0.0036277799 -0.39331099
-0.0062484699 0.0036182399 -0.39233401
-0.0044021602 0.0036182399 -0.39233401
-0.00255013 0.0036086999 -0.391357
-0.00070953398 0.0036086999 -0.391357
0.00113106 0.0036086999 -0.391357
0.0029716501 0.0036086999 -0.391357
0.0047988901 0.00360107 -0.39038101
0.0066528302 0.0036086999 -0.391357
0.0084915198 0.0036086999 -0.391357
0.0103302 0.0036086999 -0.391357
0.012207 0.0036182399 -0.39233401
0.0140533 0.0036182399 -0.39233401
0.0159302 0.0036277799 -0.39331099
0.0177765 0.0036277799 -0.39331099
0.019683801 0.0036373099 -0.39453101
0.0215912 0.0036468499 -0.39550799
0.0235138 0.0036563899 -0.39648399
0.025512701 0.00367355 -0.39843801
0.027450601 0.00368309 -0.399414
0.0294037 0.00369263 -0.40039101
0.031433102 0.0037117 -0.40234399
0.033325199 0.0037117 -0.40234399
0.035308801 0.00372124 -0.40356401
-0.0234375 0.0018186599 -0.40234399
-0.021484399 0.0018138899 -0.40136701
-0.019546499 0.00181007 -0.40039101
-0.0176239 0.00180531 -0.399414
-0.015670801 0.00179577 -0.397461
-0.0137711 0.00179195 -0.39648399
-0.0118713 0.00178719 -0.39550799
-0.0099868802 0.00178242 -0.39453101
-0.0081100501 0.00177765 -0.39331099
-0.0062484699 0.00177383 -0.39233401
-0.0044021602 0.00177383 -0.39233401
-0.00255013 0.00176907 -0.391357
-0.00070953398 0.00176907 -0.391357
0.00113106 0.00176907 -0.391357
0.00296402 0.0017643 -0.39038101
0.0047988901 0.0017643 -0.39038101
0.0066337599 0.0017643 -0.39038101
0.0084686298 0.0017643 -0.39038101
0.0103302 0.00176907 -0.391357
0.0121765 0.00176907 -0.391357
0.0140533 0.00177383 -0.39233401
0.015899699 0.00177383 -0.39233401
0.0177765 0.00177765 -0.39331099
0.019683801 0.00178242 -0.39453101
0.0215912 0.00178719 -0.39550799
0.0235138 0.00179195 -0.39648399
0.0254364 0.00179577 -0.397461
0.027450601 0.00180531 -0.399414
0.0294037 0.00181007 -0.40039101
0.0313721 0.0018138899 -0.40136701
0.033325199 0.0018186599 -0.40234399
0.035308801 0.0018234299 -0.40356401
-0.025451699 -0.000074028998 -0.40454099
-0.0234985 -0.000073850199 -0.40356401
-0.021545401 -0.000073671297 -0.40234399
-0.019546499 -0.000073313699 -0.40039101
-0.0176239 -0.000073134899 -0.399414
-0.015670801 -0.0000727773 -0.397461
-0.0137711 -0.000072598501 -0.39648399
-0.0118713 -0.0000724196 -0.39550799
-0.0099868802 -0.000072181203 -0.39453101
-0.0081100501 -0.000072002404 -0.39331099
-0.0062484699 -0.000071823597 -0.39233401
-0.0044021602 -0.000071823597 -0.39233401
-0.00255013 -0.000071644798 -0.391357
-0.00070953398 -0.000071644798 -0.391357
0.00113106 -0.000071644798 -0.391357
0.00296402 -0.000071465998 -0.39038101
0.0047988901 -0.000071465998 -0.39038101
0.0066337599 -0.000071525603 -0.39038101
0.0084686298 -0.000071525603 -0.39038101
0.0103302 -0.000071704402 -0.391357
0.0121765 -0.000071704402 -0.391357
0.0140533 -0.000071883202 -0.39233401
0.015899699 -0.000071883202 -0.39233401
0.0177765 -0.000072062001 -0.39331099
0.019683801 -0.0000722408 -0.39453101
0.0215912 -0.0000724196 -0.39550799
0.0235138 -0.000072598501 -0.39648399
0.0254364 -0.0000727773 -0.397461
0.027450601 -0.000073134899 -0.399414
0.0294037 -0.000073313699 -0.40039101
0.0313721 -0.000073552103 -0.40136701
0.033325199 -0.000073730902 -0.40234399
0.035308801 -0.000073909803 -0.40356401
-0.025512701 -0.00197983 -0.405518
-0.0234985 -0.00197029 -0.40356401
-0.021545401 -0.0019664799 -0.40234399
-0.019607499 -0.00196075 -0.40136701
-0.0176239 -0.00195122 -0.399414
-0.0157013 -0.00194645 -0.39843801
-0.0137711 -0.00193691 -0.39648399
-0.0118713 -0.00193214 -0.39550799
-0.0099868802 -0.00192738 -0.39453101
-0.0081100501 -0.00192165 -0.39331099
-0.0062484699 -0.00191689 -0.39233401
-0.0044021602 -0.00191689 -0.39233401
-0.00255013 -0.00191212 -0.391357
-0.00070953398 -0.00191212 -0.391357
0.00113106 -0.00191212 -0.391357
0.00296402 -0.00190735 -0.39038101
0.0047988901 -0.00190735 -0.39038101
0.0066337599 -0.00190735 -0.39038101
0.0084686298 -0.00190735 -0.39038101
0.0103302 -0.00191212 -0.391357
0.0121765 -0.00191212 -0.391357
0.0140533 -0.00191689 -0.39233401
0.015899699 -0.00191689 -0.39233401
0.0177765 -0.00192165 -0.39331099
0.019683801 -0.00192738 -0.39453101
0.0215912 -0.00193214 -0.39550799
0.0235138 -0.00193691 -0.39648399
0.0254364 -0.00194168 -0.397461
0.027450601 -0.00195122 -0.399414
0.0294037 -0.00195503 -0.40039101
0.0313721 -0.00196075 -0.40136701
0.033325199 -0.0019664799 -0.40234399
0.035308801 -0.00197029 -0.40356401
-0.025512701 -0.00388718 -0.405518
-0.0235596 -0.00387764 -0.40454099
-0.0215912 -0.0038681 -0.40356401
-0.019607499 -0.00384903 -0.40136701
-0.0176697 -0.00383949 -0.40039101
-0.0157013 -0.00382042 -0.39843801
-0.0138016 -0.00381088 -0.397461
-0.0118713 -0.00379181 -0.39550799
-0.0099868802 -0.00378227 -0.39453101
-0.0081100501 -0.00377274 -0.39331099
-0.0062484699 -0.0037632 -0.39233401
-0.0044021602 -0.0037632 -0.39233401
-0.00255013 -0.00375366 -0.391357
-0.00070953398 -0.00375366 -0.391357
0.00113106 -0.00375366 -0.391357
0.0029716501 -0.00375366 -0.391357
0.0047988901 -0.00374413 -0.39038101
0.0066337599 -0.00374413 -0.39038101
0.0084915198 -0.00375366 -0.391357
0.0103302 -0.00375366 -0.391357
0.0121765 -0.00375366 -0.391357
0.0140533 -0.0037632 -0.39233401
0.015899699 -0.0037632 -0.39233401
0.0177765 -0.00377274 -0.39331099
0.019683801 -0.00378227 -0.39453101
0.0215912 -0.00379181 -0.39550799
0.0235138 -0.00380135 -0.39648399
0.025512701 -0.00382042 -0.39843801
0.027450601 -0.00382996 -0.399414
0.0294037 -0.00383949 -0.40039101
0.0313721 -0.00384903 -0.40136701
0.033325199 -0.00385857 -0.40234399
0.035308801 -0.0038681 -0.40356401
-0.025512701 -0.0057945298 -0.405518
-0.0235596 -0.0057792701 -0.40454099
-0.0215912 -0.0057640099 -0.40356401
-0.0196533 -0.0057525602 -0.40234399
-0.0176697 -0.0057220501 -0.40039101
-0.0157471 -0.0057067899 -0.399414
-0.0138016 -0.00568008 -0.397461
-0.0119019 -0.0056648301 -0.39648399
-0.0100098 -0.0056495699 -0.39550799
-0.0081329299 -0.0056343102 -0.39453101
-0.0062637301 -0.00562286 -0.39331099
-0.0044021602 -0.0056075999 -0.39233401
-0.00255585 -0.0056075999 -0.39233401
-0.00070953398 -0.0055923499 -0.391357
0.00113106 -0.0055923499 -0.391357
0.0029716501 -0.0055923499 -0.391357
0.00481033 -0.0055923499 -0.391357
0.0066528302 -0.0055923499 -0.391357
0.0084915198 -0.0055923499 -0.391357
0.0103302 -0.0055923499 -0.391357
0.012207 -0.0056075999 -0.39233401
0.0140533 -0.0056075999 -0.39233401
0.0159302 -0.00562286 -0.39331099
0.0177765 -0.00562286 -0.39331099
0.019683801 -0.0056343102 -0.39453101
0.0215912 -0.0056495699 -0.39550799
0.023574799 -0.00568008 -0.397461
0.025512701 -0.0056915302 -0.39843801
0.027450601 -0.0057067899 -0.399414
0.0294037 -0.0057220501 -0.40039101
0.0313721 -0.0057373 -0.40136701
0.033325199 -0.0057525602 -0.40234399
0.035308801 -0.0057640099 -0.40356401
0.273193 -0.0080184899 -0.56103498
0.27978501 -0.0078277597 -0.54785198
0.28295901 -0.0078430204 -0.54882801
0.292236 -0.0078887902 -0.55175799
0.29541001 -0.0079040499 -0.55273402
0.298096 -0.0079040499 -0.55273402
0.301025 -0.0079116803 -0.553711
0.30639601 -0.0079116803 -0.553711
0.31152299 -0.0079116803 -0.553711
-0.025589 -0.0077209501 -0.40649399
-0.0236206 -0.0077018701 -0.405518
-0.021652199 -0.0076827998 -0.40454099
-0.0196991 -0.0076637301 -0.40356401
-0.017715501 -0.0076255798 -0.40136701
-0.0157471 -0.0075874301 -0.399414
-0.0138397 -0.0075683598 -0.39843801
-0.0119019 -0.0075302101 -0.39648399
-0.0100098 -0.0075111398 -0.39550799
-0.0081329299 -0.0074920701 -0.39453101
-0.0062637301 -0.0074729901 -0.39331099
-0.0044021602 -0.0074539199 -0.39233401
-0.00255585 -0.0074539199 -0.39233401
-0.00071144098 -0.0074539199 -0.39233401
0.00113106 -0.0074348398 -0.391357
0.0029716501 -0.0074348398 -0.391357
0.00481033 -0.0074348398 -0.391357
0.0066528302 -0.0074348398 -0.391357
0.0084915198 -0.0074348398 -0.391357
0.0103607 -0.0074539199 -0.39233401
0.012207 -0.0074539199 -0.39233401
0.0140839 -0.0074729901 -0.39331099
0.0159302 -0.0074729901 -0.39331099
0.017822299 -0.0074920701 -0.39453101
0.019729599 -0.0075111398 -0.39550799
0.021652199 -0.0075302101 -0.39648399
0.023574799 -0.0075492901 -0.397461
0.025512701 -0.0075683598 -0.39843801
0.0275116 -0.0076065101 -0.40039101
0.029479999 -0.0076255798 -0.40136701
0.031433102 -0.0076446501 -0.40234399
0.033325199 -0.0076446501 -0.40234399
0.035308801 -0.0076637301 -0.40356401
0.168457 -0.0102158 -0.538086
0.170288 -0.010025 -0.52783197
0.173218 -0.0099105798 -0.52197301
0.22692899 -0.0100098 -0.52685499
0.229004 -0.0099868802 -0.52587903
0.231445 -0.0099868802 -0.52587903
0.234375 -0.0100098 -0.52685499
0.238281 -0.0100632 -0.52978498
0.241699 -0.0101013 -0.53173798
0.24560501 -0.0101547 -0.53466803
0.249878 -0.010231 -0.53906298
0.25390601 -0.0102921 -0.54199201
0.25732401 -0.0103302 -0.54394501
0.260254 -0.0103455 -0.54492199
0.263428 -0.0103683 -0.54589802
0.266357 -0.0103836 -0.546875
0.26855499 -0.0103683 -0.54589802
0.27050799 -0.0103455 -0.54492199
0.273193 -0.0103455 -0.54492199
0.27612299 -0.0103683 -0.54589802
0.27929699 -0.0103836 -0.546875
0.282471 -0.0104065 -0.54785198
0.2854 -0.0104218 -0.54882801
0.28857401 -0.0104446 -0.54980499
0.29174799 -0.0104599 -0.55078101
0.29492199 -0.0104828 -0.55175799
0.298096 -0.010498 -0.55273402
0.30053699 -0.010498 -0.55273402
0.303711 -0.0105209 -0.553711
0.30639601 -0.0105209 -0.553711
0.30835 -0.010498 -0.55273402
0.31103501 -0.010498 -0.55273402
0.31298801 -0.0104828 -0.55175799
0.31494099 -0.0104599 -0.55078101
0.31640601 -0.0104218 -0.54882801
0.32104501 -0.0104065 -0.54785198
0.326904 -0.0104218 -0.54882801
0.326904 -0.0103455 -0.54492199
-0.025589 -0.0096282996 -0.40649399
-0.0236206 -0.0096054096 -0.405518
-0.0217133 -0.0096054096 -0.405518
-0.0196991 -0.0095596304 -0.40356401
-0.017761201 -0.0095367404 -0.40234399
-0.0157928 -0.0094909696 -0.40039101
-0.0138702 -0.0094604502 -0.399414
-0.0119324 -0.0094146701 -0.397461
-0.0100403 -0.00939178 -0.39648399
-0.00815582 -0.0093689002 -0.39550799
-0.0062789898 -0.0093460102 -0.39453101
-0.0044136001 -0.0093231201 -0.39331099
-0.00255585 -0.0093002301 -0.39233401
-0.00071144098 -0.0093002301 -0.39233401
0.00113392 -0.0093002301 -0.39233401
0.00297928 -0.0093002301 -0.39233401
0.0048255902 -0.0093002301 -0.39233401
0.0066680899 -0.0093002301 -0.39233401
0.0085143996 -0.0093002301 -0.39233401
0.0103607 -0.0093002301 -0.39233401
0.0122375 -0.0093231201 -0.39331099
0.0140839 -0.0093231201 -0.39331099
0.015976001 -0.0093460102 -0.39453101
0.017867999 -0.0093689002 -0.39550799
0.019790599 -0.00939178 -0.39648399
0.021698 -0.0094146701 -0.397461
0.0236359 -0.0094375601 -0.39843801
0.025573701 -0.0094604502 -0.399414
0.0275116 -0.0094909696 -0.40039101
0.029479999 -0.0095138503 -0.40136701
0.031433102 -0.0095367404 -0.40234399
0.033325199 -0.0095367404 -0.40234399
0.168457 -0.0127487 -0.538086
0.16369601 -0.0121994 -0.51464802
0.16833501 -0.0123672 -0.52197301
0.170532 -0.0123444 -0.52099597
0.17297401 -0.0123444 -0.52099597
0.175781 -0.0123672 -0.52197301
0.178589 -0.0123901 -0.52294898
0.18139599 -0.012413 -0.52392602
0.18518101 -0.0125046 -0.52783197
0.188354 -0.012558 -0.52978498
0.191284 -0.0125809 -0.53076202
0.194824 -0.0126495 -0.53369099
0.19738799 -0.0126495 -0.53369099
0.199829 -0.0126495 -0.53369099
0.202759 -0.0126724 -0.53466803
0.204956 -0.0126495 -0.53369099
0.21057101 -0.0128403 -0.54199201
0.213135 -0.0128403 -0.54199201
0.218262 -0.012413 -0.52392602
0.216919 -0.0121994 -0.51464802
0.21935999 -0.0121994 -0.51464802
0.221802 -0.0121994 -0.51464802
0.225586 -0.0122681 -0.51757801
0.229736 -0.0123672 -0.52197301
0.233032 -0.012413 -0.52392602
0.23645 -0.0124588 -0.52587903
0.239868 -0.0125046 -0.52783197
0.243652 -0.0125809 -0.53076202
0.24853501 -0.0126953 -0.53564501
0.25292999 -0.0127945 -0.540039
0.25634801 -0.0128403 -0.54199201
0.25976601 -0.012886 -0.54394501
0.26245099 -0.012886 -0.54394501
0.26538101 -0.0129089 -0.54492199
0.26757801 -0.012886 -0.54394501
0.27002001 -0.012886 -0.54394501
0.273193 -0.0129089 -0.54492199
0.275635 -0.0129089 -0.54492199
0.27880901 -0.0129395 -0.54589802
0.281982 -0.0129623 -0.546875
0.28491199 -0.0129852 -0.54785198
0.288086 -0.0130081 -0.54882801
0.29126 -0.013031 -0.54980499
0.29443401 -0.0130539 -0.55078101
0.29736301 -0.0130768 -0.55175799
0.30004901 -0.0130768 -0.55175799
0.30322301 -0.0130997 -0.55273402
0.30590799 -0.0130997 -0.55273402
0.307861 -0.0130768 -0.55175799
0.30981401 -0.0130539 -0.55078101
0.31201199 -0.013031 -0.54980499
0.31445301 -0.013031 -0.54980499
0.315918 -0.0129852 -0.54785198
0.317871 -0.0129623 -0.546875
0.320557 -0.0129623 -0.546875
0.32251 -0.0129395 -0.54589802
0.32617199 -0.0129852 -0.54785198
0.329346 -0.0130081 -0.54882801
-0.0217133 -0.0115128 -0.405518
-0.019805901 -0.0115128 -0.405518
-0.017806999 -0.0114594 -0.40356401
-0.0158691 -0.0114288 -0.40234399
-0.0139084 -0.0113678 -0.40039101
-0.0119629 -0.0113144 -0.39843801
-0.0100632 -0.0112839 -0.397461
-0.0081710797 -0.0112534 -0.39648399
-0.00629425 -0.0112305 -0.39550799
-0.0044250502 -0.0112 -0.39453101
-0.0025634801 -0.0111694 -0.39331099
-0.00071334798 -0.0111694 -0.39331099
0.00113678 -0.0111694 -0.39331099
0.00297928 -0.0111389 -0.39233401
0.0048255902 -0.0111389 -0.39233401
0.0066871601 -0.0111694 -0.39331099
0.0085372897 -0.0111694 -0.39331099
0.0103836 -0.0111694 -0.39331099
0.0122681 -0.0112 -0.39453101
0.014122 -0.0112 -0.39453101
0.016021701 -0.0112305 -0.39550799
0.0179138 -0.0112534 -0.39648399
0.0198364 -0.0112839 -0.397461
0.021759 -0.0113144 -0.39843801
0.023696899 -0.0113449 -0.399414
0.025634799 -0.0113678 -0.40039101
0.0275879 -0.0113983 -0.40136701
0.029479999 -0.0113983 -0.40136701
0.031433102 -0.0114288 -0.40234399
0.033325199 -0.0114288 -0.40234399
0.120361 -0.0140762 -0.49585
0.122437 -0.0140533 -0.49487299
0.124756 -0.0140533 -0.49487299
0.127075 -0.0140533 -0.49487299
0.129639 -0.0140762 -0.49585
0.132202 -0.0141068 -0.49682599
0.13488799 -0.0141373 -0.497803
0.137695 -0.0141907 -0.49975601
0.141479 -0.0143356 -0.50488299
0.144409 -0.014389 -0.506836
0.147949 -0.0145035 -0.51074201
0.160034 -0.0145035 -0.51074201
0.163086 -0.0145645 -0.51269501
0.168091 -0.0147934 -0.52099597
0.170166 -0.0147629 -0.52002001
0.172607 -0.0147629 -0.52002001
0.17504901 -0.0147629 -0.52002001
0.178223 -0.0148239 -0.52197301
0.18139599 -0.0148773 -0.52392602
0.184448 -0.0149307 -0.52587903
0.18774401 -0.0149918 -0.52783197
0.190918 -0.0150452 -0.52978498
0.19409201 -0.0151062 -0.53173798
0.19702099 -0.0151367 -0.53271502
0.19909699 -0.0151062 -0.53173798
0.20166001 -0.0151062 -0.53173798
0.20336901 -0.0150452 -0.52978498
0.20117199 -0.0147095 -0.51757801
0.198853 -0.0143661 -0.50585902
0.213623 -0.0152512 -0.53662097
0.214111 -0.0151062 -0.53173798
0.21582 -0.0150452 -0.52978498
0.211182 -0.014389 -0.506836
0.214478 -0.0144501 -0.508789
0.21679699 -0.0144501 -0.508789
0.220093 -0.0145035 -0.51074201
0.224243 -0.0146179 -0.51464802
0.227051 -0.0146484 -0.515625
0.231323 -0.0147629 -0.52002001
0.23376501 -0.0147629 -0.52002001
0.23706099 -0.0148239 -0.52197301
0.24096701 -0.0149078 -0.52490199
0.246704 -0.0151062 -0.53173798
0.25146499 -0.0152512 -0.53662097
0.255371 -0.0153351 -0.540039
0.258789 -0.0153885 -0.54199201
0.26196301 -0.015419 -0.54296899
0.264404 -0.015419 -0.54296899
0.26708999 -0.015419 -0.54296899
0.26953101 -0.015419 -0.54296899
0.27270499 -0.0154495 -0.54394501
0.27514601 -0.0154495 -0.54394501
0.27832001 -0.0154724 -0.54492199
0.28125 -0.0155029 -0.54589802
0.28442401 -0.0155334 -0.546875
0.28759801 -0.015564 -0.54785198
0.29077101 -0.0155869 -0.54882801
0.29370099 -0.0156174 -0.54980499
0.296875 -0.0156403 -0.55078101
0.29956099 -0.0156403 -0.55078101
0.30273399 -0.015670801 -0.55175799
0.30468801 -0.0156403 -0.55078101
0.30737299 -0.0156403 -0.55078101
0.30932599 -0.0156174 -0.54980499
0.311279 -0.0155869 -0.54882801
0.313232 -0.015564 -0.54785198
0.31542999 -0.0155334 -0.546875
0.31738299 -0.0155029 -0.54589802
0.31982401 -0.0155029 -0.54589802
0.32299799 -0.0155334 -0.546875
0.32568401 -0.0155334 -0.546875
0.328857 -0.015564 -0.54785198
0.32763699 -0.0153885 -0.54199201
0.305664 -0.0140228 -0.49389601
0.31103501 -0.0141678 -0.498779
0.31201199 -0.0141068 -0.49682599
0.31689501 -0.0142212 -0.50048798
0.320557 -0.0142822 -0.50292999
0.32495099 -0.0143661 -0.50585902
0.32983401 -0.0144806 -0.50976598
0.336914 -0.014679 -0.51660198
0.33935499 -0.014679 -0.51660198
-0.0218201 -0.0134888 -0.407471
-0.019851699 -0.0134506 -0.40649399
-0.017898601 -0.0134201 -0.405518
-0.015899699 -0.0133514 -0.40356401
-0.0139771 -0.0133209 -0.40234399
-0.0120239 -0.0132523 -0.40039101
-0.0100861 -0.0131912 -0.39843801
-0.0081939697 -0.0131531 -0.397461
-0.0063095102 -0.0131226 -0.39648399
-0.0044364901 -0.0130844 -0.39550799
-0.0025692 -0.0130539 -0.39453101
-0.00071525603 -0.0130539 -0.39453101
0.00113678 -0.0130234 -0.39331099
0.0029869101 -0.0130234 -0.39331099
0.0048370399 -0.0130234 -0.39331099
0.0066871601 -0.0130234 -0.39331099
0.0085601797 -0.0130539 -0.39453101
0.0104141 -0.0130539 -0.39453101
0.0122986 -0.0130844 -0.39550799
0.0141602 -0.0130844 -0.39550799
0.0160522 -0.0131226 -0.39648399
0.0179596 -0.0131531 -0.397461
0.0198822 -0.0131912 -0.39843801
0.0218201 -0.0132217 -0.399414
0.023757899 -0.0132523 -0.40039101
0.025756801 -0.0133209 -0.40234399
0.027725199 -0.0133514 -0.40356401
0.0295563 -0.0133209 -0.40234399
0.096008301 -0.016632101 -0.50292999
0.098388702 -0.016632101 -0.50292999
0.10376 -0.016738901 -0.50585902
0.105896 -0.0167084 -0.50488299
0.108276 -0.0167084 -0.50488299
0.110229 -0.016632101 -0.50292999
0.111877 -0.016540499 -0.49975601
0.11377 -0.0164795 -0.497803
0.115417 -0.016372699 -0.49487299
0.117554 -0.0163422 -0.49389601
0.120117 -0.016372699 -0.49487299
0.122192 -0.0163422 -0.49389601
0.124512 -0.0163422 -0.49389601
0.127075 -0.016372699 -0.49487299
0.12939499 -0.016372699 -0.49487299
0.13195799 -0.0164032 -0.49585
0.13452099 -0.016433701 -0.49682599
0.137207 -0.0164795 -0.497803
0.140137 -0.016540499 -0.49975601
0.14416499 -0.015716599 -0.47485399
0.146484 -0.015716599 -0.47485399
0.149048 -0.0157471 -0.47582999
0.160156 -0.016677899 -0.50390601
0.163452 -0.0167694 -0.506836
0.16955601 -0.0171356 -0.51757801
0.171997 -0.0171356 -0.51757801
0.174683 -0.0171661 -0.51855499
0.177856 -0.0172424 -0.52099597
0.18103001 -0.0173035 -0.52294898
0.184204 -0.0173645 -0.52490199
0.187378 -0.0174408 -0.52685499
0.190552 -0.017501799 -0.52880901
0.193359 -0.0175323 -0.52978498
0.196289 -0.0175629 -0.53076202
0.198364 -0.0175323 -0.52978498
0.200928 -0.0175323 -0.52978498
0.203003 -0.017501799 -0.52880901
0.20080601 -0.017105101 -0.51660198
0.198853 -0.016738901 -0.50585902
0.19567899 -0.0162811 -0.49169901
0.197998 -0.0162811 -0.49169901
0.208618 -0.016571 -0.50048798
0.211914 -0.016632101 -0.50292999
0.21472199 -0.016677899 -0.50390601
0.217896 -0.016738901 -0.50585902
0.221558 -0.016845699 -0.508789
0.22485401 -0.016906699 -0.51074201
0.228149 -0.0169678 -0.51269501
0.231079 -0.0169983 -0.51367199
0.234375 -0.0170746 -0.515625
0.237305 -0.017105101 -0.51660198
0.240601 -0.0171661 -0.51855499
0.249146 -0.0176086 -0.53173798
0.25488299 -0.0178375 -0.53906298
0.257568 -0.0178375 -0.53906298
0.260986 -0.017898601 -0.54101598
0.26391599 -0.0179291 -0.54199201
0.26660201 -0.0179291 -0.54199201
0.25170901 -0.0167694 -0.506836
0.25146499 -0.0166016 -0.50195301
0.253418 -0.016571 -0.50048798
0.277832 -0.018005401 -0.54394501
0.28076199 -0.0180359 -0.54492199
0.28393599 -0.018066401 -0.54589802
0.28710899 -0.0180969 -0.546875
0.28955099 -0.0180969 -0.546875
0.29370099 -0.0182037 -0.54980499
0.29638699 -0.0182037 -0.54980499
0.29833999 -0.018173199 -0.54882801
0.303711 -0.0183411 -0.553711
0.30590799 -0.018295299 -0.55273402
0.30835 -0.018295299 -0.55273402
0.31054699 -0.0182648 -0.55175799
0.3125 -0.018234299 -0.55078101
0.31445301 -0.0182037 -0.54980499
0.31640601 -0.018173199 -0.54882801
0.31860399 -0.0181274 -0.54785198
0.320557 -0.0180969 -0.546875
0.32299799 -0.0180969 -0.546875
0.32568401 -0.0180969 -0.546875
0.328125 -0.0180969 -0.546875
0.28149399 -0.0154114 -0.46557599
0.28491199 -0.01548 -0.46777299
0.291504 -0.015716599 -0.47485399
0.296875 -0.0158691 -0.479736
0.30590799 -0.0162354 -0.49072301
0.31079099 -0.016372699 -0.49487299
0.31567401 -0.01651 -0.498779
0.320068 -0.0166016 -0.50195301
0.32421899 -0.0167084 -0.50488299
0.329346 -0.016845699 -0.508789
0.33422899 -0.0169678 -0.51269501
0.33789101 -0.017044101 -0.51464802
0.34106401 -0.0170746 -0.515625
0.34277299 -0.017044101 -0.51464802
-0.0218658 -0.0154419 -0.408447
-0.0199432 -0.0154419 -0.408447
-0.0179291 -0.0153656 -0.40649399
-0.0159912 -0.0153275 -0.405518
-0.0140152 -0.0152512 -0.40356401
-0.012085 -0.015213 -0.40234399
-0.0101395 -0.0151367 -0.40039101
-0.0082168598 -0.0150604 -0.39843801
-0.00632858 -0.0150223 -0.397461
-0.0044479398 -0.0149841 -0.39648399
-0.0025768301 -0.014946 -0.39550799
-0.00071668602 -0.014946 -0.39550799
0.0011425 -0.014946 -0.39550799
0.0029945399 -0.0149078 -0.39453101
0.0048484802 -0.0149078 -0.39453101
0.0067024198 -0.0149078 -0.39453101
0.0085754404 -0.014946 -0.39550799
0.010437 -0.014946 -0.39550799
0.0123291 -0.0149841 -0.39648399
0.0142288 -0.0150223 -0.397461
0.016098 -0.0150223 -0.397461
0.018005401 -0.0150604 -0.39843801
0.019928001 -0.0150986 -0.399414
0.0219269 -0.0151749 -0.40136701
0.0238647 -0.015213 -0.40234399
0.0258331 -0.0152512 -0.40356401
0.0278625 -0.0153275 -0.405518
0.029769899 -0.0153275 -0.405518
0.096008301 -0.0189972 -0.50292999
0.098388702 -0.0189972 -0.50292999
0.101135 -0.019073499 -0.50488299
0.103516 -0.019073499 -0.50488299
0.105896 -0.019073499 -0.50488299
0.108093 -0.019043 -0.50390601
0.110229 -0.0189972 -0.50292999
0.111877 -0.018890399 -0.49975601
0.11377 -0.0188141 -0.497803
0.115173 -0.018661501 -0.49389601
0.11731 -0.018631 -0.49292001
0.119629 -0.018631 -0.49292001
0.121948 -0.018631 -0.49292001
0.124268 -0.018631 -0.49292001
0.126831 -0.018661501 -0.49389601
0.12915 -0.018661501 -0.49389601
0.131714 -0.0187073 -0.49487299
0.13403299 -0.0187073 -0.49487299
0.13696299 -0.018783599 -0.49682599
0.140137 -0.018890399 -0.49975601
0.143555 -0.019043 -0.50390601
0.146484 -0.0191193 -0.50585902
0.13855 -0.0177917 -0.47070301
0.141113 -0.017822299 -0.47167999
0.143555 -0.017867999 -0.47265601
0.14587399 -0.017867999 -0.47265601
0.14807101 -0.017867999 -0.47265601
0.150269 -0.017867999 -0.47265601
0.152466 -0.017867999 -0.47265601
0.155762 -0.0179749 -0.47582999
0.171997 -0.019577 -0.51757801
0.174683 -0.019607499 -0.51855499
0.17749 -0.0196533 -0.52002001
0.180664 -0.019729599 -0.52197301
0.18383799 -0.019805901 -0.52392602
0.187012 -0.0198822 -0.52587903
0.19018599 -0.0199585 -0.52783197
0.193359 -0.020034799 -0.52978498
0.18176299 -0.018585199 -0.49169901
0.18335 -0.0185089 -0.489746
0.184448 -0.0184021 -0.48681599
0.18139599 -0.017867999 -0.47265601
0.18396001 -0.017898601 -0.47363299
0.187012 -0.0179749 -0.47582999
0.19360401 -0.0184021 -0.48681599
0.196411 -0.0184326 -0.487793
0.198608 -0.0184326 -0.487793
0.201782 -0.0185089 -0.489746
0.207031 -0.018783599 -0.49682599
0.210205 -0.018859901 -0.498779
0.213379 -0.0189362 -0.50048798
0.216553 -0.0189972 -0.50292999
0.21984901 -0.019073499 -0.50488299
0.22314499 -0.019149801 -0.506836
0.225952 -0.019195599 -0.50781298
0.229248 -0.019271901 -0.50976598
0.23205601 -0.0193024 -0.51074201
0.23498499 -0.0193481 -0.51171899
0.23498499 -0.019149801 -0.506836
0.235962 -0.019043 -0.50390601
0.22741701 -0.018173199 -0.48071301
0.230225 -0.0182037 -0.48168901
0.230957 -0.0180969 -0.47876
0.231812 -0.0179749 -0.47582999
0.232544 -0.017867999 -0.47265601
0.234253 -0.017822299 -0.47167999
0.23645 -0.017822299 -0.47167999
0.238647 -0.017822299 -0.47167999
0.24096701 -0.017822299 -0.47167999
0.242676 -0.0177917 -0.47070301
0.24426299 -0.017746 -0.46972701
0.26464799 -0.018249501 -0.48266599
0.266357 -0.0182037 -0.48168901
0.26757801 -0.0181274 -0.479736
0.267822 -0.017410301 -0.460693
0.26928699 -0.0173798 -0.45971701
0.27148399 -0.0173798 -0.45971701
0.27294901 -0.017333999 -0.45874
0.27514601 -0.017333999 -0.45874
0.27978501 -0.0174866 -0.46264601
0.28320301 -0.0175629 -0.4646
0.29101601 -0.017898601 -0.47363299
0.296143 -0.0180969 -0.47876
0.30590799 -0.018554701 -0.49072301
0.31079099 -0.0187073 -0.49487299
0.31518599 -0.0188141 -0.497803
0.31860399 -0.018890399 -0.49975601
0.32299799 -0.0189972 -0.50292999
0.32788101 -0.019149801 -0.506836
0.333496 -0.0193481 -0.51171899
0.33740199 -0.019424399 -0.51367199
0.340332 -0.019455001 -0.51464802
0.34204099 -0.019424399 -0.51367199
0.34399399 -0.019378699 -0.51269501
0.344971 -0.0193024 -0.51074201
0.34472701 -0.019149801 -0.506836
0.34570301 -0.019073499 -0.50488299
-0.180176 -0.0195313 -0.45971701
-0.17846701 -0.019577 -0.460693
-0.17626999 -0.019577 -0.460693
-0.174927 -0.0196686 -0.46264601
-0.022033701 -0.0174866 -0.41137701
-0.02005 -0.0174408 -0.4104
-0.0180206 -0.0173645 -0.408447
-0.016067499 -0.0173187 -0.407471
-0.0140839 -0.017227201 -0.405518
-0.0121155 -0.017150899 -0.40356401
-0.0101929 -0.017105101 -0.40234399
-0.0082550002 -0.0170135 -0.40039101
-0.0063590999 -0.0169678 -0.399414
-0.00446701 -0.016937301 -0.39843801
-0.00258827 -0.0168915 -0.397461
-0.000718594 -0.016845699 -0.39648399
0.0011453599 -0.016845699 -0.39648399
0.0030098001 -0.016845699 -0.39648399
0.0048599201 -0.016799901 -0.39550799
0.00673676 -0.016845699 -0.39648399
0.0085983304 -0.016845699 -0.39648399
0.0104675 -0.016845699 -0.39648399
0.0123596 -0.0168915 -0.397461
0.014267 -0.016937301 -0.39843801
0.0161743 -0.0169678 -0.399414
0.0180969 -0.0170135 -0.40039101
0.020034799 -0.0170593 -0.40136701
0.022033701 -0.017150899 -0.40356401
0.0239868 -0.0171814 -0.40454099
0.0260162 -0.017272901 -0.40649399
0.0279999 -0.0173187 -0.407471
0.030136099 -0.0174408 -0.4104
0.096008301 -0.021362299 -0.50292999
0.098388702 -0.021362299 -0.50292999
0.101135 -0.0214539 -0.50488299
0.103516 -0.0214539 -0.50488299
0.105896 -0.0214539 -0.50488299
0.108093 -0.0214081 -0.50390601
0.109985 -0.0213318 -0.50195301
0.111877 -0.021240201 -0.49975601
0.11377 -0.021163899 -0.497803
0.115173 -0.0209808 -0.49389601
0.11731 -0.020950301 -0.49292001
0.119385 -0.0209045 -0.49169901
0.121643 -0.0209045 -0.49169901
0.123962 -0.0209045 -0.49169901
0.126221 -0.0209045 -0.49169901
0.128784 -0.020950301 -0.49292001
0.13110401 -0.020950301 -0.49292001
0.133789 -0.0209808 -0.49389601
0.13659699 -0.021072401 -0.49585
0.13952599 -0.021163899 -0.497803
0.136353 -0.0200043 -0.47070301
0.138916 -0.02005 -0.47167999
0.140747 -0.0200043 -0.47070301
0.14294399 -0.0200043 -0.47070301
0.145264 -0.0200043 -0.47070301
0.147461 -0.0200043 -0.47070301
0.14965799 -0.0200043 -0.47070301
0.15185501 -0.0200043 -0.47070301
0.154053 -0.0200043 -0.47070301
0.15527301 -0.0198822 -0.46777299
0.176514 -0.021972699 -0.51660198
0.179932 -0.0220947 -0.52002001
0.18383799 -0.022262599 -0.52392602
0.18810999 -0.0224762 -0.52880901
0.176514 -0.019790599 -0.46557599
0.180298 -0.0199585 -0.46972701
0.184448 -0.020172101 -0.47485399
0.186279 -0.0201263 -0.47363299
0.192017 -0.020523099 -0.48266599
0.19519 -0.020599401 -0.48486301
0.19824199 -0.020690899 -0.48681599
0.201782 -0.020812999 -0.489746
0.206177 -0.0210266 -0.49487299
0.209351 -0.021118199 -0.49682599
0.21215799 -0.021163899 -0.497803
0.215332 -0.021240201 -0.49975601
0.21850599 -0.0213318 -0.50195301
0.221802 -0.0214081 -0.50390601
0.225098 -0.0214996 -0.50585902
0.22790501 -0.021545401 -0.506836
0.23071299 -0.0215759 -0.50781298
0.233154 -0.0215759 -0.50781298
0.23413099 -0.0214539 -0.50488299
0.233643 -0.021194501 -0.498779
0.23120099 -0.020767201 -0.48877001
0.229736 -0.0204315 -0.48071301
0.230957 -0.020339999 -0.47876
0.231323 -0.020172101 -0.47485399
0.232544 -0.020095799 -0.47265601
0.234253 -0.02005 -0.47167999
0.23645 -0.02005 -0.47167999
0.238159 -0.0200043 -0.47070301
0.239868 -0.0199585 -0.46972701
0.242065 -0.0199585 -0.46972701
0.24426299 -0.0199585 -0.46972701
0.26074201 -0.020385699 -0.479736
0.26367199 -0.0204315 -0.48071301
0.266846 -0.020339999 -0.47876
0.26464799 -0.0198364 -0.46679699
0.26513699 -0.0196991 -0.46362299
0.265625 -0.019577 -0.460693
0.26660201 -0.0194855 -0.45874
0.26879901 -0.0194855 -0.45874
0.27075201 -0.0194855 -0.45874
0.272461 -0.019455001 -0.457764
0.27514601 -0.0194855 -0.45874
0.27856401 -0.019577 -0.460693
0.28125 -0.019622801 -0.46167001
0.27978501 -0.0193634 -0.45556599
0.281982 -0.0193634 -0.45556599
0.28295901 -0.019271901 -0.45361301
0.31274399 -0.021163899 -0.497803
0.31518599 -0.021163899 -0.497803
0.31860399 -0.021240201 -0.49975601
0.32226601 -0.0213318 -0.50195301
0.27929699 -0.0179596 -0.422607
0.28320301 -0.0180817 -0.42553699
0.284668 -0.0180359 -0.42456099
0.286621 -0.0180359 -0.42456099
0.34399399 -0.0214996 -0.50585902
0.344971 -0.0214081 -0.50390601
0.345947 -0.0213318 -0.50195301
0.34765601 -0.021286 -0.50048798
-0.18335 -0.021560701 -0.456543
-0.181641 -0.021606401 -0.457764
-0.17981 -0.021652199 -0.45874
-0.178101 -0.021698 -0.45971701
-0.17626999 -0.0217438 -0.460693
-0.174438 -0.021789599 -0.46167001
-0.173096 -0.0218811 -0.46362299
-0.17126501 -0.0219269 -0.4646
-0.1698 -0.022033701 -0.46679699
-0.167969 -0.022079499 -0.46777299
-0.16613799 -0.022125199 -0.46875
-0.164307 -0.022171 -0.46972701
-0.162109 -0.022171 -0.46972701
-0.15991201 -0.022171 -0.46972701
-0.11261 -0.021179199 -0.44872999
-0.055786099 -0.021225 -0.449707
-0.053680401 -0.021225 -0.449707
-0.051666301 -0.0212708 -0.45068401
-0.0496521 -0.0213165 -0.45166001
-0.047546402 -0.0213165 -0.45166001
-0.045410201 -0.0213165 -0.45166001
-0.024307299 -0.0196991 -0.41747999
-0.0221863 -0.019561799 -0.41455099
-0.0201416 -0.0194702 -0.41259801
-0.018112199 -0.019378699 -0.4104
-0.016098 -0.0192871 -0.408447
-0.0141525 -0.0192261 -0.407471
-0.0121765 -0.019134499 -0.405518
-0.0102158 -0.019043 -0.40356401
-0.0083007803 -0.0189972 -0.40234399
-0.0063896198 -0.018951399 -0.40136701
-0.0044784499 -0.018859901 -0.399414
-0.0025959001 -0.0187988 -0.39843801
-0.000722408 -0.0187988 -0.39843801
0.00114822 -0.0187531 -0.397461
0.00301743 -0.0187531 -0.397461
0.00488663 -0.0187531 -0.397461
0.0067558298 -0.0187531 -0.397461
0.0086212195 -0.0187531 -0.397461
0.0105209 -0.0187988 -0.39843801
0.0123901 -0.0187988 -0.39843801
0.0143051 -0.018859901 -0.399414
0.0162201 -0.018905601 -0.40039101
0.018188501 -0.0189972 -0.40234399
0.0201416 -0.019043 -0.40356401
0.0220947 -0.0190887 -0.40454099
0.0241089 -0.0191803 -0.40649399
0.0261536 -0.0192871 -0.408447
0.028213499 -0.019378699 -0.4104
0.0302887 -0.0194702 -0.41259801
0.0324402 -0.019607499 -0.41552699
0.034576401 -0.0196991 -0.41747999
0.055786099 -0.020278901 -0.429443
0.057922401 -0.0203247 -0.430664
0.059967 -0.0203247 -0.430664
0.096008301 -0.0237274 -0.50292999
0.098388702 -0.0237274 -0.50292999
0.101135 -0.023834201 -0.50488299
0.103516 -0.023834201 -0.50488299
0.105896 -0.023834201 -0.50488299
0.114502 -0.023162801 -0.49072301
0.116821 -0.023162801 -0.49072301
0.119385 -0.0232086 -0.49169901
0.121399 -0.023162801 -0.49072301
0.123718 -0.023162801 -0.49072301
0.12597699 -0.023162801 -0.49072301
0.128296 -0.023162801 -0.49072301
0.130371 -0.023117101 -0.489746
0.13269 -0.023117101 -0.489746
0.136108 -0.022171 -0.46972701
0.13855 -0.022216801 -0.47070301
0.140137 -0.022125199 -0.46875
0.1427 -0.022171 -0.46972701
0.144897 -0.022171 -0.46972701
0.14709499 -0.022171 -0.46972701
0.14929201 -0.022171 -0.46972701
0.151245 -0.022125199 -0.46875
0.153442 -0.022125199 -0.46875
0.154907 -0.022033701 -0.46679699
0.176147 -0.022216801 -0.47070301
0.17797901 -0.022171 -0.46972701
0.180664 -0.022216801 -0.47070301
0.183594 -0.022308299 -0.47265601
0.185425 -0.022262599 -0.47167999
0.191284 -0.022689801 -0.48071301
0.194336 -0.0227814 -0.48266599
0.19824199 -0.022979699 -0.48681599
0.201416 -0.0230713 -0.48877001
0.205322 -0.0232544 -0.49292001
0.208496 -0.0233612 -0.49487299
0.21167 -0.0234528 -0.49682599
0.214844 -0.0235443 -0.498779
0.21814001 -0.0236359 -0.50048798
0.221313 -0.0237274 -0.50292999
0.224121 -0.023788501 -0.50390601
0.22692899 -0.023834201 -0.50488299
0.23071299 -0.0239716 -0.50781298
0.205566 -0.020507799 -0.43457001
0.22778299 -0.022506701 -0.476807
0.229004 -0.0224152 -0.47485399
0.22937 -0.022216801 -0.47070301
0.231567 -0.022216801 -0.47070301
0.23376501 -0.022216801 -0.47070301
0.235962 -0.022216801 -0.47070301
0.238159 -0.022216801 -0.47070301
0.239868 -0.022171 -0.46972701
0.242065 -0.022171 -0.46972701
0.24426299 -0.022171 -0.46972701
0.263428 -0.0219269 -0.4646
0.26464799 -0.021835299 -0.46264601
0.265625 -0.0217438 -0.460693
0.26660201 -0.021652199 -0.45874
0.26879901 -0.021652199 -0.45874
0.27075201 -0.021652199 -0.45874
0.27172899 -0.021560701 -0.456543
0.27392599 -0.021560701 -0.456543
0.27856401 -0.0217438 -0.460693
0.27880901 -0.021606401 -0.457764
0.27929699 -0.0214539 -0.45458999
0.25781301 -0.0196533 -0.416504
0.25976601 -0.0196533 -0.416504
0.25976601 -0.019516001 -0.41357401
0.266846 -0.019607499 -0.41552699
0.26879901 -0.019607499 -0.41552699
0.27612299 -0.019851699 -0.42041001
0.27856401 -0.0198975 -0.42163101
0.280029 -0.019851699 -0.42041001
0.28271499 -0.0198975 -0.42163101
0.285889 -0.019989001 -0.42358401
0.28515601 -0.019805901 -0.41943401
0.28784201 -0.019851699 -0.42041001
0.29418901 -0.019607499 -0.41552699
0.296875 -0.0196533 -0.416504
0.29882801 -0.0196533 -0.416504
0.30004901 -0.019607499 -0.41552699
0.30200201 -0.019607499 -0.41552699
0.30249 -0.019516001 -0.41357401
0.303711 -0.0194702 -0.41259801
0.0050353999 0.032653801 -0.40942401
0.0069580101 0.032653801 -0.40942401
0.0088806199 0.032653801 -0.40942401
0.0107803 0.032562301 -0.408447
-0.00455856 0.030502301 -0.40649399
-0.0026473999 0.030502301 -0.40649399
-0.00073862099 0.0305786 -0.407471
0.0011797 0.0306549 -0.408447
0.0031089799 0.030731199 -0.40942401
0.0050353999 0.030731199 -0.40942401
0.0069580101 0.030731199 -0.40942401
0.0088653602 0.0306549 -0.408447
0.0107803 0.0306549 -0.408447
0.0126724 0.0305786 -0.407471
0.0145569 0.030502301 -0.40649399
-0.0083389301 0.028457601 -0.40454099
-0.0064392099 0.028457601 -0.40454099
-0.0045471201 0.028518699 -0.405518
-0.0026473999 0.028595001 -0.40649399
-0.00073862099 0.0286713 -0.407471
0.00117683 0.0286713 -0.407471
0.00310135 0.0287323 -0.408447
0.0050201402 0.0287323 -0.408447
0.00694275 0.0287323 -0.408447
0.0088653602 0.0287323 -0.408447
0.0107574 0.0286713 -0.407471
0.0126419 0.028595001 -0.40649399
0.0145187 0.028518699 -0.405518
0.0163879 0.028457601 -0.40454099
0.018279999 0.028457601 -0.40454099
0.0201874 0.028457601 -0.40454099
0.0220947 0.028457601 -0.40454099
-0.0102158 0.026489301 -0.40356401
-0.00831604 0.026489301 -0.40356401
-0.0064392099 0.0265503 -0.40454099
-0.0045356802 0.0265503 -0.40454099
-0.00264168 0.0266113 -0.405518
-0.000736713 0.0266876 -0.40649399
0.00117683 0.0267487 -0.407471
0.0030937199 0.0267487 -0.407471
0.0050201402 0.0268097 -0.408447
0.00694275 0.0268097 -0.408447
0.0088424701 0.0267487 -0.407471
0.0107269 0.0266876 -0.40649399
0.0126114 0.0266113 -0.405518
0.0145187 0.0266113 -0.405518
0.0163879 0.0265503 -0.40454099
0.018279999 0.0265503 -0.40454099
0.0201416 0.026489301 -0.40356401
0.0220947 0.0265503 -0.40454099
0.0239868 0.0265503 -0.40454099
-0.0159912 0.024704 -0.405518
-0.0140457 0.0246429 -0.40454099
-0.0121155 0.0245819 -0.40356401
-0.0102158 0.0245819 -0.40356401
-0.00831604 0.0245819 -0.40356401
-0.0064239502 0.0245819 -0.40356401
-0.0045356802 0.0246429 -0.40454099
-0.0026340501 0.0246429 -0.40454099
-0.00073528301 0.024704 -0.405518
0.0011739701 0.024765 -0.40649399
0.0030860901 0.024765 -0.40649399
0.0050086998 0.024826 -0.407471
0.00690842 0.024765 -0.40649399
0.0088195801 0.024765 -0.40649399
0.010704 0.024704 -0.405518
0.0125809 0.0246429 -0.40454099
0.0144806 0.0246429 -0.40454099
0.0163422 0.0245819 -0.40356401
0.018234299 0.0245819 -0.40356401
0.0201416 0.0245819 -0.40356401
0.022033701 0.0245819 -0.40356401
0.0239258 0.0245819 -0.40356401
0.0258942 0.0246429 -0.40454099
0.027801501 0.0246429 -0.40454099
-0.017898601 0.022796599 -0.405518
-0.0159912 0.022796599 -0.405518
-0.0140457 0.022750899 -0.40454099
-0.0121155 0.022689801 -0.40356401
-0.0101929 0.022628799 -0.40234399
-0.0083007803 0.022628799 -0.40234399
-0.00640869 0.022628799 -0.40234399
-0.0045127901 0.022628799 -0.40234399
-0.0026283299 0.022689801 -0.40356401
-0.00073337601 0.022750899 -0.40454099
0.00116825 0.022750899 -0.40454099
0.00307846 0.022796599 -0.405518
0.0049858098 0.022796599 -0.405518
0.0068931598 0.022796599 -0.405518
0.0087738 0.022750899 -0.40454099
0.0106735 0.022750899 -0.40454099
0.0125504 0.022689801 -0.40356401
0.0144424 0.022689801 -0.40356401
0.0162964 0.022628799 -0.40234399
0.018188501 0.022628799 -0.40234399
0.0200806 0.022628799 -0.40234399
0.021972699 0.022628799 -0.40234399
0.0239258 0.022689801 -0.40356401
0.0258331 0.022689801 -0.40356401
0.027801501 0.022750899 -0.40454099
-0.019805901 0.020889301 -0.405518
-0.017898601 0.020889301 -0.405518
-0.015945399 0.0208435 -0.40454099
-0.0140152 0.0207977 -0.40356401
-0.012085 0.0207367 -0.40234399
-0.0101624 0.020690899 -0.40136701
-0.0082778903 0.020690899 -0.40136701
-0.0063896198 0.020690899 -0.40136701
-0.00450134 0.020690899 -0.40136701
-0.0026149701 0.020690899 -0.40136701
-0.00072956103 0.0207367 -0.40234399
0.00116253 0.0207367 -0.40234399
0.0030632 0.0207977 -0.40356401
0.0049591102 0.0207977 -0.40356401
0.0068588299 0.0207977 -0.40356401
0.0087280301 0.0207367 -0.40234399
0.0106277 0.0207367 -0.40234399
0.0125198 0.0207367 -0.40234399
0.0143738 0.020690899 -0.40136701
0.016265901 0.020690899 -0.40136701
0.0181427 0.020690899 -0.40136701
0.020034799 0.020690899 -0.40136701
0.021972699 0.0207367 -0.40234399
0.0238647 0.0207367 -0.40234399
0.0258331 0.0207977 -0.40356401
0.027725199 0.0207977 -0.40356401
0.0296936 0.0208435 -0.40454099
-0.0217133 0.0189819 -0.405518
-0.019805901 0.0189819 -0.405518
-0.0178528 0.0189362 -0.40454099
-0.015899699 0.018890399 -0.40356401
-0.0139771 0.018844601 -0.40234399
-0.0120544 0.0187988 -0.40136701
-0.0101395 0.0187531 -0.40039101
-0.0082550002 0.0187531 -0.40039101
-0.0063743601 0.0187531 -0.40039101
-0.0044899001 0.0187531 -0.40039101
-0.0026092499 0.0187531 -0.40039101
-0.00072622299 0.0187531 -0.40039101
0.00115681 0.0187531 -0.40039101
0.00304031 0.0187531 -0.40039101
0.0049362201 0.0187988 -0.40136701
0.0068244901 0.0187988 -0.40136701
0.0086898804 0.0187531 -0.40039101
0.0105743 0.0187531 -0.40039101
0.0124512 0.0187531 -0.40039101
0.0143356 0.0187531 -0.40039101
0.0162201 0.0187531 -0.40039101
0.0180969 0.0187531 -0.40039101
0.019989001 0.0187531 -0.40039101
0.0219269 0.0187988 -0.40136701
0.023819 0.0187988 -0.40136701
0.025756801 0.018844601 -0.40234399
0.027725199 0.018890399 -0.40356401
0.0296173 0.018890399 -0.40356401
0.031585701 0.0189362 -0.40454099
-0.021652199 0.017044101 -0.40454099
-0.019744899 0.017044101 -0.40454099
-0.017806999 0.0169983 -0.40356401
-0.0158691 0.0169525 -0.40234399
-0.0139389 0.016906699 -0.40136701
-0.0120239 0.0168762 -0.40039101
-0.0101166 0.0168304 -0.399414
-0.0082168598 0.0167847 -0.39843801
-0.0063438402 0.0167847 -0.39843801
-0.00446701 0.0167847 -0.39843801
-0.0025959001 0.0167847 -0.39843801
-0.000722408 0.0167847 -0.39843801
0.00115108 0.0167847 -0.39843801
0.00302505 0.0167847 -0.39843801
0.0048980699 0.0167847 -0.39843801
0.00677109 0.0167847 -0.39843801
0.0086441003 0.0167847 -0.39843801
0.0105209 0.0167847 -0.39843801
0.0123901 0.0167847 -0.39843801
0.014267 0.0167847 -0.39843801
0.016143801 0.0167847 -0.39843801
0.018051101 0.0168304 -0.399414
0.019928001 0.0168304 -0.399414
0.0218658 0.0168762 -0.40039101
0.023819 0.016906699 -0.40136701
0.025695801 0.016906699 -0.40136701
0.027664199 0.0169525 -0.40234399
0.0296173 0.0169983 -0.40356401
0.031585701 0.017044101 -0.40454099
0.033508301 0.017044101 -0.40454099
-0.021652199 0.0151443 -0.40454099
-0.0196991 0.0151062 -0.40356401
-0.017761201 0.0150681 -0.40234399
-0.0158234 0.0150299 -0.40136701
-0.0139084 0.0149918 -0.40039101
-0.0119934 0.0149536 -0.399414
-0.0100861 0.0149155 -0.39843801
-0.0081939697 0.0148773 -0.397461
-0.00632858 0.0148773 -0.397461
-0.0044479398 0.0148392 -0.39648399
-0.00258255 0.0148392 -0.39648399
-0.000718594 0.0148392 -0.39648399
0.0011453599 0.0148392 -0.39648399
0.0030098001 0.0148392 -0.39648399
0.0048713698 0.0148392 -0.39648399
0.00673676 0.0148392 -0.39648399
0.0086212195 0.0148773 -0.397461
0.0104904 0.0148773 -0.397461
0.0123596 0.0148773 -0.397461
0.0142288 0.0148773 -0.397461
0.016098 0.0148773 -0.397461
0.018005401 0.0149155 -0.39843801
0.0198822 0.0149155 -0.39843801
0.0218201 0.0149536 -0.399414
0.023757899 0.0149918 -0.40039101
0.025695801 0.0150299 -0.40136701
0.027664199 0.0150681 -0.40234399
0.0296173 0.0151062 -0.40356401
0.031524699 0.0151062 -0.40356401
0.033508301 0.0151443 -0.40454099
-0.0234985 0.0132065 -0.40356401
-0.0215912 0.0132065 -0.40356401
-0.0196533 0.013176 -0.40234399
-0.017715501 0.0131378 -0.40136701
-0.0157928 0.0131073 -0.40039101
-0.0138702 0.0130768 -0.399414
-0.0119629 0.0130386 -0.39843801
-0.0100632 0.0130081 -0.397461
-0.0081710797 0.0129776 -0.39648399
-0.0063095102 0.0129776 -0.39648399
-0.0044364901 0.0129395 -0.39550799
-0.0025768301 0.0129395 -0.39550799
-0.00071668602 0.0129395 -0.39550799
0.0011425 0.0129395 -0.39550799
0.00300217 0.0129395 -0.39550799
0.0048599201 0.0129395 -0.39550799
0.0067214998 0.0129395 -0.39550799
0.0085754404 0.0129395 -0.39550799
0.010437 0.0129395 -0.39550799
0.0122986 0.0129395 -0.39550799
0.0141907 0.0129776 -0.39648399
0.0160522 0.0129776 -0.39648399
0.0179596 0.0130081 -0.397461
0.0198364 0.0130081 -0.397461
0.021759 0.0130386 -0.39843801
0.023696899 0.0130768 -0.399414
0.025634799 0.0131073 -0.40039101
0.0275879 0.0131378 -0.40136701
0.0295563 0.013176 -0.40234399
0.031524699 0.0132065 -0.40356401
0.033508301 0.013237 -0.40454099
0.035400402 0.013237 -0.40454099
-0.0234985 0.0113068 -0.40356401
-0.0215912 0.0113068 -0.40356401
-0.0196533 0.0112839 -0.40234399
-0.0176697 0.0112228 -0.40039101
-0.0157471 0.0111923 -0.399414
-0.0138397 0.0111694 -0.39843801
-0.0119324 0.0111389 -0.397461
-0.0100403 0.0111084 -0.39648399
-0.00815582 0.0110855 -0.39550799
-0.0062789898 0.011055 -0.39453101
-0.0044250502 0.011055 -0.39453101
-0.0025692 0.011055 -0.39453101
-0.00071334798 0.0110245 -0.39331099
0.00113678 0.0110245 -0.39331099
0.0029869101 0.0110245 -0.39331099
0.0048370399 0.0110245 -0.39331099
0.0066871601 0.0110245 -0.39331099
0.0085601797 0.011055 -0.39453101
0.0104141 0.011055 -0.39453101
0.0122681 0.011055 -0.39453101
0.0141602 0.0110855 -0.39550799
0.016021701 0.0110855 -0.39550799
0.0179138 0.0111084 -0.39648399
0.019790599 0.0111084 -0.39648399
0.021698 0.0111389 -0.397461
0.0236359 0.0111694 -0.39843801
0.025634799 0.0112228 -0.40039101
0.0275879 0.0112534 -0.40136701
0.0295563 0.0112839 -0.40234399
0.031524699 0.0113068 -0.40356401
0.0334167 0.0113068 -0.40356401
0.035400402 0.0113373 -0.40454099
-0.025390601 0.0094070397 -0.40356401
-0.0234985 0.0094070397 -0.40356401
-0.021545401 0.0093841599 -0.40234399
-0.019607499 0.0093612699 -0.40136701
-0.0176697 0.0093383798 -0.40039101
-0.0157471 0.0093154898 -0.399414
-0.0138016 0.0092697097 -0.397461
-0.0119019 0.0092468299 -0.39648399
-0.0100098 0.0092239399 -0.39550799
-0.0081329299 0.0092010498 -0.39453101
-0.0062789898 0.0092010498 -0.39453101
-0.0044136001 0.0091781598 -0.39331099
-0.0025634801 0.0091781598 -0.39331099
-0.00071144098 0.0091552697 -0.39233401
0.00113392 0.0091552697 -0.39233401
0.00297928 0.0091552697 -0.39233401
0.0048255902 0.0091552697 -0.39233401
0.0066680899 0.0091552697 -0.39233401
0.0085372897 0.0091781598 -0.39331099
0.0103836 0.0091781598 -0.39331099
0.0122375 0.0091781598 -0.39331099
0.014122 0.0092010498 -0.39453101
0.015976001 0.0092010498 -0.39453101
0.017867999 0.0092239399 -0.39550799
0.019790599 0.0092468299 -0.39648399
0.021698 0.0092697097 -0.397461
0.0236359 0.0092925997 -0.39843801
0.025573701 0.0093154898 -0.399414
0.0275116 0.0093383798 -0.40039101
0.029479999 0.0093612699 -0.40136701
0.031433102 0.0093841599 -0.40234399
0.0334167 0.0094070397 -0.40356401
0.035400402 0.0094375601 -0.40454099
-0.025390601 0.0075149499 -0.40356401
-0.0234375 0.0074958801 -0.40234399
-0.021545401 0.0074958801 -0.40234399
-0.019607499 0.0074768099 -0.40136701
-0.0176239 0.0074386601 -0.399414
-0.0157013 0.0074195899 -0.39843801
-0.0138016 0.0074043302 -0.397461
-0.0118713 0.00736618 -0.39550799
-0.0099868802 0.0073471102 -0.39453101
-0.0081329299 0.0073471102 -0.39453101
-0.0062637301 0.0073280302 -0.39331099
-0.0044021602 0.00730896 -0.39233401
-0.00255585 0.00730896 -0.39233401
-0.00071144098 0.00730896 -0.39233401
0.00113392 0.00730896 -0.39233401
0.0029716501 0.0072898902 -0.391357
0.00481033 0.0072898902 -0.391357
0.0066680899 0.00730896 -0.39233401
0.0085143996 0.00730896 -0.39233401
0.0103607 0.00730896 -0.39233401
0.0122375 0.0073280302 -0.39331099
0.0140839 0.0073280302 -0.39331099
0.015976001 0.0073471102 -0.39453101
0.017822299 0.0073471102 -0.39453101
0.019729599 0.00736618 -0.39550799
0.021652199 0.0073852502 -0.39648399
0.023574799 0.0074043302 -0.397461
0.025512701 0.0074195899 -0.39843801
0.0275116 0.0074577299 -0.40039101
0.029479999 0.0074768099 -0.40136701
0.031433102 0.0074958801 -0.40234399
0.0334167 0.0075149499 -0.40356401
0.035308801 0.0075149499 -0.40356401
-0.0234375 0.0056037898 -0.40234399
-0.021484399 0.0055885301 -0.40136701
-0.019546499 0.0055770902 -0.40039101
-0.0176239 0.00556183 -0.399414
-0.0157013 0.0055465698 -0.39843801
-0.0137711 0.0055198702 -0.39648399
-0.0118713 0.00550461 -0.39550799
-0.0099868802 0.0054931599 -0.39453101
-0.0081100501 0.0054779099 -0.39331099
-0.0062637301 0.0054779099 -0.39331099
-0.0044021602 0.0054626502 -0.39233401
-0.00255585 0.0054626502 -0.39233401
-0.00070953398 0.0054512001 -0.391357
0.00113106 0.0054512001 -0.391357
0.0029716501 0.0054512001 -0.391357
0.00481033 0.0054512001 -0.391357
0.0066528302 0.0054512001 -0.391357
0.0084915198 0.0054512001 -0.391357
0.0103607 0.0054626502 -0.39233401
0.012207 0.0054626502 -0.39233401
0.0140533 0.0054626502 -0.39233401
0.0159302 0.0054779099 -0.39331099
0.017822299 0.0054931599 -0.39453101
0.019729599 0.00550461 -0.39550799
0.021652199 0.0055198702 -0.39648399
0.023574799 0.0055351299 -0.397461
0.025512701 0.0055465698 -0.39843801
0.027450601 0.00556183 -0.399414
0.029479999 0.0055885301 -0.40136701
0.031433102 0.0056037898 -0.40234399
0.0334167 0.00561905 -0.40356401
0.035308801 0.00561905 -0.40356401
-0.025329599 0.0037117 -0.40234399
-0.0234375 0.0037117 -0.40234399
-0.021484399 0.00370216 -0.40136701
-0.019546499 0.00369263 -0.40039101
-0.0176239 0.00368309 -0.399414
-0.015670801 0.0036659201 -0.397461
-0.0137711 0.0036563899 -0.39648399
-0.0118713 0.0036468499 -0.39550799
-0.0099868802 0.0036373099 -0.39453101
-0.0081100501 0.0036277799 -0.39331099
-0.0062484699 0.0036182399 -0.39233401
-0.0044021602 0.0036182399 -0.39233401
-0.00255013 0.0036086999 -0.391357
-0.00070953398 0.0036086999 -0.391357
0.00113106 0.0036086999 -0.391357
0.0029716501 0.0036086999 -0.391357
0.0047988901 0.00360107 -0.39038101
0.0066528302 0.0036086999 -0.391357
0.0084915198 0.0036086999 -0.391357
0.0103302 0.0036086999 -0.391357
0.012207 0.0036182399 -0.39233401
0.0140533 0.0036182399 -0.39233401
0.0159302 0.0036277799 -0.39331099
0.0177765 0.0036277799 -0.39331099
0.019683801 0.0036373099 -0.39453101
0.0215912 0.0036468499 -0.39550799
0.0235138 0.0036563899 -0.39648399
0.025512701 0.00367355 -0.39843801
0.027450601 0.00368309 -0.399414
0.0294037 0.00369263 -0.40039101
0.031433102 0.0037117 -0.40234399
0.033325199 0.0037117 -0.40234399
0.035308801 0.00372124 -0.40356401
-0.0234375 0.0018186599 -0.40234399
-0.021484399 0.0018138899 -0.40136701
-0.019546499 0.00181007 -0.40039101
-0.0176239 0.00180531 -0.399414
-0.015670801 0.00179577 -0.397461
-0.0137711 0.00179195 -0.39648399
-0.0118713 0.00178719 -0.39550799
-0.0099868802 0.00178242 -0.39453101
-0.0081100501 0.00177765 -0.39331099
