# .PCD v0.7 - Point Cloud Data file format
VERSION 0.7
FIELDS x y z
SIZE 4 4 4
TYPE F F F
COUNT 1 1 1
WIDTH 1428
HEIGHT 1
VIEWPOINT 0 0 0 1 0 0 0
POINTS 1428
DATA ascii
-0.0324402 0.22650149 -0.60595697
-0.028175399 0.22650149 -0.60595697
-0.0224762 0.22650149 -0.60595697
-0.016776999 0.22650151 -0.60595697
-0.012508349 0.2266845 -0.60644549
-0.0082397452 0.2268675 -0.60693401
-0.0025310526 0.2271425 -0.60766596
0.0031866999 0.22723399 -0.60790998
0.0074768099 0.22723401 -0.60790998
0.0117874 0.22759999 -0.609375
0.017517101 0.22760001 -0.609375
0.023239151 0.22759999 -0.609375
0.027542099 0.22760001 -0.609375
0.031837501 0.22759999 -0.609375
0.03756715 0.22759999 -0.609375
0.043212902 0.22723401 -0.60790998
0.047515899 0.22723401 -0.60790998
0.0518036 0.22723401 -0.60790998
0.05752565 0.22723401 -0.60790998
0.0632324 0.22723401 -0.60790998
0.067504898 0.22723401 -0.60790998
0.071807846 0.22723401 -0.60790998
0.077545151 0.22723401 -0.60790998
0.083282448 0.22723401 -0.60790998
0.087524399 0.22723401 -0.60790998
0.0918274 0.22723399 -0.60790998
0.097564697 0.22723401 -0.60790998
0.103302 0.22723401 -0.60790998
0.107544 0.22723401 -0.60790998
0.111847 0.22723399 -0.60790998
0.117401 0.2268675 -0.60693401
0.123108 0.2268675 -0.60693401
0.12731899 0.2268675 -0.60693401
0.131653 0.2268675 -0.60693401
0.13732901 0.2268675 -0.60693401
0.14288326 0.226593 -0.60620123
0.14849851 0.22650151 -0.60595697
0.152832 0.22650149 -0.60595697
0.15728751 0.226776 -0.60668975
0.16302499 0.2268675 -0.60693401
0.167358 0.2268675 -0.60693401
0.17163099 0.2268675 -0.60693401
0.1773985 0.226959 -0.60717803
0.18319699 0.2270505 -0.60742199
0.187378 0.2268675 -0.60693401
0.1915895 0.2268675 -0.60693401
0.19726551 0.22677599 -0.60668975
0.20288099 0.22668451 -0.60644549
0.208435 0.22650151 -0.60595697
0.21264599 0.22650149 -0.60595697
0.21698001 0.22650149 -0.60595697
0.22265601 0.22650151 -0.60595697
0.22833249 0.22650151 -0.60595697
0.232666 0.22650149 -0.60595697
0.23645033 0.22603367 -0.60595697
0.241211 0.225098 -0.60595697
0.349365 0.22650149 -0.60595697
0.35229501 0.22650149 -0.60595697
0.35717803 0.2268675 -0.60693401
0.36340326 0.22714224 -0.60766596
0.36792001 0.22723401 -0.60790998
0.37237525 0.22741701 -0.60864246
0.378418 0.22760001 -0.609375
0.38281301 0.229004 -0.609375
-0.0623779 0.23223901 -0.60595697
-0.056686401 0.23223901 -0.60595697
-0.0523987 0.23223901 -0.60595697
-0.048149075 0.2323305 -0.60620123
-0.04249575 0.23260501 -0.60693401
-0.036788952 0.232605 -0.60693401
-0.032501198 0.232605 -0.60693401
-0.028221101 0.232605 -0.60693401
-0.0225143 0.23260501 -0.60693401
-0.016807601 0.23260501 -0.60693401
-0.0125198 0.232605 -0.60693401
-0.0082416525 0.23269649 -0.60717803
-0.0025329599 0.23297101 -0.60790998
0.0031866999 0.232971 -0.60790998
0.0074768099 0.232971 -0.60790998
0.011783575 0.233246 -0.60900873
0.017517101 0.23333749 -0.609375
0.023239151 0.23333751 -0.609375
0.027542099 0.23333749 -0.609375
0.031837501 0.23333749 -0.609375
0.03756715 0.23333751 -0.609375
0.043212898 0.23297101 -0.60790998
0.047515899 0.232971 -0.60790998
0.0518036 0.23297101 -0.60790998
0.05752565 0.232971 -0.60790998
0.0632324 0.232971 -0.60790998
0.067504898 0.232971 -0.60790998
0.071807846 0.23297101 -0.60790998
0.077545151 0.23297101 -0.60790998
0.083282441 0.23297101 -0.60790998
0.087524399 0.232971 -0.60790998
0.0918274 0.23297101 -0.60790998
0.097564697 0.23297101 -0.60790998
0.103302 0.23297101 -0.60790998
0.107544 0.232971 -0.60790998
0.1117095 0.2326965 -0.60717803
0.117401 0.23260501 -0.60693401
0.123108 0.23260501 -0.60693401
0.12731899 0.232605 -0.60693401
0.131531 0.23242199 -0.60644549
0.1372375 0.23242199 -0.60644549
0.142822 0.23223899 -0.60595697
0.14849851 0.23223899 -0.60595697
0.152832 0.23223901 -0.60595697
0.1573485 0.232605 -0.60693401
0.16302499 0.232605 -0.60693401
0.167358 0.232605 -0.60693401
0.17163101 0.232605 -0.60693401
0.17730701 0.23260501 -0.60693401
0.18304449 0.232605 -0.60693401
0.187378 0.232605 -0.60693401
0.1915285 0.23251349 -0.60668975
0.19702148 0.23223901 -0.60595697
0.20269799 0.23083501 -0.60595697
0.208435 0.23083501 -0.60595697
0.21264599 0.23083501 -0.60595697
0.21698 0.23083501 -0.60595697
0.22265601 0.23083501 -0.60595697
0.22833249 0.23083501 -0.60595697
0.349365 0.23083501 -0.60595697
0.35229501 0.23223901 -0.60595697
0.35693398 0.23242201 -0.60644549
0.36291498 0.232605 -0.60693401
0.36755401 0.232788 -0.60742199
0.37207001 0.232971 -0.60790998
0.37817401 0.23315424 -0.60864246
0.38281301 0.23333749 -0.609375
0.38549799 0.234741 -0.609375
-0.056686401 0.23645 -0.60595697
-0.0523987 0.23791501 -0.60595697
-0.048126198 0.23791501 -0.60595697
-0.042449977 0.2380065 -0.60620123
-0.036758423 0.238098 -0.60644549
-0.032501198 0.23828101 -0.60693401
-0.028221101 0.238281 -0.60693401
-0.0225143 0.238281 -0.60693401
-0.016807601 0.238281 -0.60693401
-0.0125198 0.23828101 -0.60693401
-0.0082511902 0.237305 -0.60790998
-0.0025329599 0.237305 -0.60790998
0.0031866999 0.237305 -0.60790998
0.0074768099 0.237305 -0.60790998
0.01176835 0.237305 -0.60790998
0.017517101 0.237671 -0.609375
0.023239151 0.237671 -0.609375
0.027542099 0.237671 -0.609375
0.031837501 0.237671 -0.609375
0.03756715 0.237671 -0.609375
0.043212898 0.237305 -0.60790998
0.047515899 0.237305 -0.60790998
0.0518036 0.237305 -0.60790998
0.05752565 0.237305 -0.60790998
0.0632324 0.237305 -0.60790998
0.067504898 0.237305 -0.60790998
0.071807846 0.237305 -0.60790998
0.077545151 0.237305 -0.60790998
0.083282448 0.237305 -0.60790998
0.087524399 0.237305 -0.60790998
0.0918274 0.237305 -0.60790998
0.097564697 0.237305 -0.60790998
0.103302 0.237305 -0.60790998
0.107483 0.23852551 -0.60742199
0.1116635 0.238281 -0.60693401
0.1173095 0.238098 -0.60644549
0.1228945 0.23791501 -0.60595697
0.127197 0.23791501 -0.60595697
0.131409 0.23791501 -0.60595697
0.137146 0.23791501 -0.60595697
0.142822 0.23791501 -0.60595697
0.14849849 0.23791501 -0.60595697
0.152832 0.23791501 -0.60595697
0.1571655 0.2380065 -0.60620123
0.16302499 0.23828101 -0.60693401
0.167358 0.23828101 -0.60693401
0.17163101 0.23828101 -0.60693401
0.17730701 0.238281 -0.60693401
0.18289174 0.238098 -0.60644549
0.1884155 0.23791501 -0.60595697
0.19274899 0.23645 -0.60595697
0.35229501 0.23645 -0.60595697
0.35668948 0.23791501 -0.60595697
0.36273196 0.2381895 -0.60668975
0.36718801 0.23828101 -0.60693401
0.37164301 0.23840325 -0.60717803
0.3778075 0.237305 -0.60790998
0.38281301 0.237671 -0.609375
0.38549799 0.237671 -0.609375
-0.046691898 0.24218801 -0.60595697
-0.0424347 0.24218801 -0.60595697
-0.036254864 0.24312367 -0.60595697
-0.0324402 0.2435915 -0.60595697
-0.028186824 0.243683 -0.60620123
-0.022495251 0.2437745 -0.60644549
-0.016807601 0.24255399 -0.60693401
-0.0125198 0.24255399 -0.60693401
-0.0082454672 0.24133301 -0.60742199
-0.002530575 0.24133299 -0.60742199
0.0031859849 0.241455 -0.60766596
0.0074768099 0.241577 -0.60790998
0.01176835 0.241577 -0.60790998
0.017501799 0.24176025 -0.60864246
0.023239151 0.24194351 -0.609375
0.027542099 0.24194351 -0.609375
0.031837501 0.24194351 -0.609375
0.037551872 0.241852 -0.60900873
0.043212898 0.241577 -0.60790998
0.0474701 0.24133301 -0.60742199
0.051765449 0.24133301 -0.60742199
0.057479873 0.24133299 -0.60742199
0.0632324 0.241577 -0.60790998
0.067504898 0.241577 -0.60790998
0.071807846 0.241577 -0.60790998
0.077484123 0.24133299 -0.60742199
0.083236672 0.241455 -0.60766602
0.087524399 0.241577 -0.60790998
0.0918274 0.241577 -0.60790998
0.097564697 0.24157701 -0.60790998
0.1032105 0.24133299 -0.60742199
0.1073305 0.2437745 -0.60644549
0.1114805 0.24359149 -0.60595697
0.11674 0.24312367 -0.60595697
0.14428701 0.24218801 -0.60595697
0.14849851 0.2435915 -0.60595697
0.152832 0.2435915 -0.60595697
0.15710449 0.2435915 -0.60595697
0.16284201 0.243683 -0.60620123
0.16813134 0.24418133 -0.60628265
0.171997 0.24336767 -0.60660833
0.177063 0.2435915 -0.60595697
0.18273899 0.24218801 -0.60595697
0.358154 0.24218801 -0.60595697
0.36230499 0.24359149 -0.60595697
0.36694351 0.2437745 -0.60644549
0.37146002 0.24255399 -0.60693401
0.37762427 0.241455 -0.60766596
0.3824465 0.24176051 -0.60864246
0.38647464 0.24243169 -0.609375
-0.0224762 0.247925 -0.60595697
-0.016792301 0.246704 -0.60644549
-0.012508349 0.246704 -0.60644549
-0.0082330694 0.246704 -0.60644549
-0.002525805 0.246704 -0.60644549
0.0031805024 0.24679551 -0.60668975
0.0074653602 0.246887 -0.60693401
0.011758825 0.24707049 -0.60742199
0.01748655 0.24725351 -0.60790998
0.023223875 0.24743651 -0.60864246
0.0275192 0.24743649 -0.60864246
0.03180695 0.24743649 -0.60864246
0.0375061 0.24725349 -0.60790998
0.043167125 0.24697874 -0.60717803
0.047424302 0.246887 -0.60693401
0.051727295 0.246887 -0.60693401
0.057434101 0.246887 -0.60693401
0.063140854 0.246887 -0.60693401
0.067382798 0.246887 -0.60693401
0.071685806 0.246887 -0.60693401
0.077423096 0.246887 -0.60693401
0.08309935 0.246887 -0.60693401
0.087402299 0.246887 -0.60693401
0.0917053 0.246887 -0.60693401
0.097381607 0.246887 -0.60693401
0.10307325 0.24679549 -0.60668975
0.107239 0.247925 -0.60595697
0.110046 0.247925 -0.60595697
0.149902 0.247925 -0.60595697
0.152832 0.247925 -0.60595697
0.15710449 0.247925 -0.60595697
0.162781 0.247925 -0.60595697
0.16851801 0.247925 -0.60595697
0.172729 0.247925 -0.60595697
0.36377001 0.247925 -0.60595697
0.36804199 0.247925 -0.60595697
0.37190768 0.246419 -0.60693401
0.377197 0.246887 -0.60693401
0.381836 0.24707049 -0.60742199
0.38659674 0.247345 -0.60827625
0.39233366 0.24816932 -0.609375
0.39697301 0.249146 -0.609375
0.003175735 0.250732 -0.60595697
0.0074539199 0.25207502 -0.60595697
0.011743575 0.25231951 -0.60668975
0.017463675 0.25256351 -0.60717803
0.02318955 0.25268549 -0.60742199
0.02747345 0.25268549 -0.60742199
0.031749725 0.25268549 -0.60742199
0.03744505 0.25244153 -0.60693401
0.043113697 0.2521975 -0.60644549
0.047393799 0.2521975 -0.60644549
0.051681526 0.2521975 -0.60644549
0.057388324 0.2521975 -0.60644549
0.063117981 0.25231951 -0.60668975
0.067382798 0.25244153 -0.60693401
0.071624748 0.2521975 -0.60644549
0.077362075 0.2521975 -0.60644549
0.083038323 0.2521975 -0.60644549
0.087341301 0.2521975 -0.60644549
0.091613747 0.2521975 -0.60644549
0.097290024 0.25213623 -0.60620123
0.10293549 0.25207499 -0.60595697
0.107239 0.25207502 -0.60595697
0.110046 0.25207502 -0.60595697
0.14849851 0.25207502 -0.60595697
0.152832 0.25207502 -0.60595697
0.15710449 0.25207502 -0.60595697
0.162781 0.25207499 -0.60595697
0.167114 0.250732 -0.60595697
0.36804199 0.250732 -0.60595697
0.37231401 0.25207502 -0.60595697
0.37677002 0.25213623 -0.60620123
0.38262928 0.2521975 -0.60644549
0.387573 0.25268549 -0.60742199
0.39178473 0.25268549 -0.60742199
0.39813223 0.25317401 -0.60864246
0.402466 0.25317401 -0.60864246
0.40692124 0.25329602 -0.60900873
0.41284198 0.253418 -0.609375
0.417236 0.25488299 -0.609375
0.012201968 0.25732434 -0.60595697
0.017437 0.25793451 -0.60620123
0.0231476 0.25805649 -0.60644549
0.027427699 0.25805649 -0.60644549
0.031696349 0.25793451 -0.60620123
0.037368752 0.25634801 -0.60595697
0.04307555 0.25634801 -0.60595697
0.0473633 0.25634801 -0.60595697
0.05163575 0.25634801 -0.60595697
0.057820667 0.25732434 -0.60595697
0.06303405 0.2578125 -0.60595697
0.0673218 0.2578125 -0.60595697
0.071085602 0.25732434 -0.60595697
0.077301055 0.25634801 -0.60595697
0.082977295 0.25634801 -0.60595697
0.087280303 0.25634801 -0.60595697
0.091522202 0.2578125 -0.60595697
0.097259507 0.2578125 -0.60595697
0.1029355 0.2578125 -0.60595697
0.107239 0.2578125 -0.60595697
0.110046 0.2578125 -0.60595697
0.14331032 0.25830066 -0.60595697
0.14849851 0.2578125 -0.60595697
0.152832 0.2578125 -0.60595697
0.15710449 0.2578125 -0.60595697
0.161377 0.2578125 -0.60595697
0.38232398 0.25634801 -0.60595697
0.38842764 0.25732434 -0.60595697
0.39257801 0.25805649 -0.60644549
0.39685076 0.25805649 -0.60644549
0.40234366 0.25878933 -0.60693401
0.40649402 0.25732401 -0.60790998
0.412476 0.25744599 -0.60864246
0.41857898 0.257568 -0.609375
0.098693803 0.26196301 -0.60595697
0.1029355 0.26196301 -0.60595697
0.107239 0.263428 -0.60595697
0.110046 0.263428 -0.60595697
0.137614 0.26391634 -0.60595697
0.142822 0.263428 -0.60595697
0.14849851 0.263428 -0.60595697
0.152832 0.263428 -0.60595697
0.15710449 0.263428 -0.60595697
0.161377 0.263428 -0.60595697
0.39697266 0.26293966 -0.60595697
0.40201831 0.26310232 -0.60628265
0.40759301 0.2612305 -0.60742199
0.41210949 0.26147449 -0.60790998
0.41857898 0.26196298 -0.609375
0.112915 0.267822 -0.60595697
0.131409 0.267822 -0.60595697
0.137146 0.267822 -0.60595697
0.14294401 0.2680665 -0.60644549
0.147339 0.26831099 -0.60693401
0.151611 0.26831099 -0.60693401
0.15710449 0.267822 -0.60595697
0.161377 0.267822 -0.60595697
0.40291333 0.26700833 -0.60628265
0.40722701 0.266846 -0.60693401
0.41210949 0.26721197 -0.60790998
0.417236 0.26770002 -0.609375
0.112915 0.27075201 -0.60595697
0.117218 0.27209502 -0.60595697
0.1228945 0.27209499 -0.60595697
0.127197 0.27209502 -0.60595697
0.131409 0.27209502 -0.60595697
0.13726801 0.27227801 -0.60644549
0.1430665 0.272461 -0.60693401
0.147339 0.272461 -0.60693401
0.151611 0.272461 -0.60693401
0.15710449 0.27209499 -0.60595697
0.161377 0.27209502 -0.60595697
0.4022215 0.27209499 -0.60595697
0.40722701 0.272461 -0.60693401
0.41198725 0.272827 -0.60766596
0.418396 0.27331549 -0.60900873
0.42285201 0.27490199 -0.609375
0.117218 0.277832 -0.60595697
0.1228945 0.277832 -0.60595697
0.127197 0.277832 -0.60595697
0.131409 0.277832 -0.60595697
0.13732901 0.278198 -0.60693401
0.1430665 0.278198 -0.60693401
0.147339 0.278198 -0.60693401
0.151611 0.278198 -0.60693401
0.1571655 0.27789301 -0.60620123
0.161377 0.277832 -0.60595697
0.40356401 0.277832 -0.60595697
0.40649399 0.277832 -0.60595697
0.41149902 0.278198 -0.60693401
0.41715467 0.27807632 -0.60758466
0.42285201 0.277832 -0.609375
0.42578101 0.277832 -0.609375
0.117218 0.283447 -0.60595697
0.1228945 0.283447 -0.60595697
0.127197 0.283447 -0.60595697
0.131409 0.283447 -0.60595697
0.13732901 0.282471 -0.60693401
0.1430665 0.282471 -0.60693401
0.147339 0.282471 -0.60693401
0.151611 0.282471 -0.60693401
0.157674 0.28312168 -0.60628265
0.161377 0.283447 -0.60595697
0.40844736 0.28295866 -0.60595697
0.4124755 0.2836915 -0.60644549
0.41717499 0.28247076 -0.60693371
0.42211899 0.28149402 -0.60790998
0.42694104 0.2818605 -0.60900873
0.43139601 0.283447 -0.609375
0.117218 0.28784201 -0.60595697
0.1228945 0.28784201 -0.60595697
0.127197 0.28784201 -0.60595697
0.131409 0.28784201 -0.60595697
0.13729851 0.28674302 -0.60668975
0.1430665 0.286865 -0.60693401
0.147339 0.286865 -0.60693401
0.151611 0.286865 -0.60693401
0.15669766 0.28702798 -0.60628265
0.161377 0.28784201 -0.60595697
0.41210899 0.28784201 -0.60595697
0.41748032 0.28719068 -0.60660833
0.42138699 0.286865 -0.60693401
0.42651403 0.2872315 -0.60790998
0.43237266 0.28816769 -0.609375
0.117218 0.29199201 -0.60595697
0.1228945 0.29199201 -0.60595697
0.127197 0.29199201 -0.60595697
0.131409 0.29199201 -0.60595697
0.137207 0.29211426 -0.60620123
0.1430665 0.29248053 -0.60693401
0.147339 0.29248053 -0.60693401
0.151611 0.29248053 -0.60693401
0.15710449 0.29199201 -0.60595697
0.161377 0.29199201 -0.60595697
0.41699234 0.29150367 -0.60595697
0.4228515 0.29248053 -0.60693401
0.42797899 0.29296899 -0.60790998
0.43286097 0.293457 -0.609375
0.117218 0.29772949 -0.60595697
0.1228945 0.29772949 -0.60595697
0.127197 0.29772949 -0.60595697
0.131409 0.29772949 -0.60595697
0.137207 0.29785174 -0.60620123
0.1430665 0.29821801 -0.60693401
0.147339 0.29821801 -0.60693401
0.151611 0.29821801 -0.60693401
0.15710449 0.29772949 -0.60595697
0.161377 0.29772949 -0.60595697
0.41796899 0.29638699 -0.60595697
0.42248499 0.29797375 -0.60644549
0.42797899 0.29736301 -0.60790998
0.432861 0.29785201 -0.609375
0.117218 0.30346701 -0.60595697
0.1228945 0.30346701 -0.60595697
0.127197 0.30346701 -0.60595697
0.131409 0.30346701 -0.60595697
0.13675933 0.30314133 -0.60628265
0.1430665 0.30249 -0.60693401
0.147339 0.30249 -0.60693401
0.152018 0.30330399 -0.60660833
0.15710449 0.30346701 -0.60595697
0.161377 0.30346701 -0.60595697
0.42285132 0.30314133 -0.60628265
0.42761248 0.3012695 -0.60742199
0.432495 0.30175799 -0.60864246
0.117218 0.30761701 -0.60595697
0.1228945 0.30761701 -0.60595697
0.127197 0.30761701 -0.60595697
0.131409 0.30761701 -0.60595697
0.13777667 0.30704734 -0.60660833
0.1430665 0.30676252 -0.60693401
0.147339 0.30676252 -0.60693401
0.15104133 0.30704734 -0.60660833
0.15710449 0.30761701 -0.60595697
0.161377 0.30761701 -0.60595697
0.42358401 0.30761701 -0.60595697
0.427246 0.30676252 -0.60693401
0.43231201 0.307495 -0.60827619
0.43725601 0.307861 -0.609375
0.117218 0.31201202 -0.60595697
0.1228945 0.31201202 -0.60595697
0.127197 0.31201202 -0.60595697
0.131409 0.31201202 -0.60595697
0.137207 0.31213403 -0.60620123
0.1430665 0.3125 -0.60693401
0.147339 0.3125 -0.60693401
0.15148899 0.31225601 -0.60644549
0.15710449 0.31201202 -0.60595697
0.161377 0.31201202 -0.60595697
0.42803976 0.31213403 -0.60620123
0.43322748 0.31274399 -0.60742199
0.43841526 0.31335449 -0.60900873
0.442871 0.31494099 -0.609375
0.117218 0.31762701 -0.60595697
0.1228945 0.31762701 -0.60595697
0.127197 0.31762701 -0.60595697
0.131409 0.31762701 -0.60595697
0.137146 0.31762701 -0.60595697
0.142883 0.31781027 -0.60620123
0.148112 0.31835967 -0.60628265
0.15193667 0.31738302 -0.60628265
0.15710449 0.31762701 -0.60595697
0.161377 0.31762701 -0.60595697
0.42919901 0.31616199 -0.60595697
0.432495 0.31799352 -0.60644549
0.43731701 0.31835949 -0.60717803
0.442871 0.317871 -0.609375
0.117218 0.32336402 -0.60595697
0.1228945 0.32336402 -0.60595697
0.127197 0.32336402 -0.60595697
0.131409 0.32336402 -0.60595697
0.137146 0.32336402 -0.60595697
0.142822 0.32336402 -0.60595697
0.14849851 0.32336402 -0.60595697
0.152832 0.32336402 -0.60595697
0.15710449 0.32336402 -0.60595697
0.161377 0.32336402 -0.60595697
0.43717468 0.32307935 -0.60628265
0.442139 0.32153299 -0.60790998
0.44677734 0.32259098 -0.609375
0.117218 0.32763699 -0.60595697
0.1228945 0.32763699 -0.60595697
0.127197 0.32763699 -0.60595697
0.131409 0.32763699 -0.60595697
0.137146 0.32763699 -0.60595697
0.142822 0.32763699 -0.60595697
0.14849851 0.32763699 -0.60595697
0.152832 0.32763699 -0.60595697
0.15710449 0.32763699 -0.60595697
0.161377 0.32763699 -0.60595697
0.43798801 0.32763699 -0.60595697
0.44140601 0.32678199 -0.60693401
0.44671598 0.3275145 -0.60827619
0.45141599 0.329346 -0.609375
0.118652 0.33056599 -0.60595697
0.1228945 0.33056599 -0.60595697
0.127197 0.33056599 -0.60595697
0.131409 0.331909 -0.60595697
0.137146 0.331909 -0.60595697
0.142822 0.331909 -0.60595697
0.14849851 0.331909 -0.60595697
0.152832 0.331909 -0.60595697
0.15710449 0.331909 -0.60595697
0.161377 0.331909 -0.60595697
0.442505 0.33221424 -0.60644549
0.44799799 0.33300799 -0.60790998
0.45141599 0.33361799 -0.609375
0.13281301 0.33764648 -0.60595697
0.137146 0.33764648 -0.60595697
0.142883 0.33776873 -0.60620123
0.147339 0.338135 -0.60693401
0.15154999 0.33801299 -0.60668975
0.15710449 0.33764651 -0.60595697
0.161377 0.33764648 -0.60595697
0.442505 0.33789077 -0.60644549
0.44799799 0.33740199 -0.60790998
0.45141599 0.33789101 -0.609375
0.137146 0.34326199 -0.60595697
0.142415 0.34301767 -0.60628265
0.147339 0.342529 -0.60693401
0.151611 0.342529 -0.60693401
0.15710449 0.34326202 -0.60595697
0.44189468 0.34301767 -0.60628265
0.44799799 0.341553 -0.60790998
0.45141599 0.34216303 -0.609375
0.13855 0.34765601 -0.60595697
0.143473 0.34708667 -0.60660833
0.147339 0.346802 -0.60693401
0.15154999 0.34667975 -0.60668975
0.15710449 0.34765601 -0.60595697
0.44311532 0.34708667 -0.60660833
0.44799799 0.34741199 -0.60790998
0.45141599 0.34643599 -0.609375
0.5 -0.017089801 -0.60205102
0.231445 -0.0114517 -0.60302699
0.36914101 -0.0142441 -0.60107398
0.37280276 -0.012853624 -0.60229474
0.37760434 -0.0123825 -0.60237598
0.38264966 -0.013343833 -0.60302734
0.385986 -0.0114899 -0.60497999
0.40942401 -0.014267 -0.60205102
0.41455099 -0.0114136 -0.60107398
0.416504 -0.0113983 -0.60009801
0.42285201 -0.0143433 -0.60497999
0.42626968 -0.012395233 -0.60302734
0.45922899 -0.0143127 -0.60400403
0.46248364 -0.014244099 -0.60107434
0.46744767 -0.011467 -0.60367835
0.47167999 -0.0114365 -0.60205102
0.4887695 -0.01285175 -0.60205048
0.41943401 -0.0086288499 -0.60400403
0.42211899 -0.0086288499 -0.60400403
-0.37243649 0.00273514 -0.60497999
-0.36669898 0.00273514 -0.60497999
-0.36254901 0.00273514 -0.60497999
-0.358154 0.00273514 -0.60497999
-0.352539 0.00273514 -0.60497999
-0.34814501 0.00273514 -0.60497999
-0.33251947 0.00273514 -0.60497999
-0.326904 0.00273514 -0.60497999
-0.32202101 0.0027294201 -0.60400403
-0.31738299 0.0027256049 -0.60302752
-0.312134 0.0027294201 -0.60400403
-0.30700701 0.00273514 -0.60497999
-0.30273399 0.00273514 -0.60497999
-0.28564501 0.00273514 -0.60497999
-0.28271499 0.00273514 -0.60497999
-0.277832 0.002728465 -0.60351551
-0.27417001 0.00273514 -0.60497999
-0.18042 0.00273514 -0.60497999
-0.43652335 0.0064977035 -0.60237598
-0.432129 0.007433577 -0.60172498
-0.42724624 0.0069656405 -0.60205048
-0.42228165 0.0064977035 -0.60237598
-0.41699225 0.0069580097 -0.6015625
-0.41194665 0.0074234032 -0.60107434
-0.40763366 0.0064900727 -0.60172534
-0.40266934 0.0064875297 -0.60140002
-0.397461 0.0055542002 -0.60205102
-0.39331049 0.0055542002 -0.60205102
-0.387573 0.0055542002 -0.60205102
-0.38195801 0.0055542002 -0.60205102
-0.37768599 0.0055542002 -0.60205102
-0.372803 0.0055427598 -0.60107398
-0.3671875 0.0055427598 -0.60107398
-0.362793 0.0055427598 -0.60107398
-0.35803199 0.0055351299 -0.60009801
-0.35241699 0.0055351299 -0.60009801
-0.34741199 0.0055427598 -0.60107398
-0.34167498 0.0055427598 -0.60107398
-0.33740199 0.0055427598 -0.60107398
-0.33325201 0.0055427598 -0.60107398
-0.32702649 0.0055351299 -0.60009801
-0.32141101 0.0055351299 -0.60009801
-0.30590799 0.0055351299 -0.60009801
-0.30163598 0.0055351299 -0.60009801
-0.29785201 0.0055427598 -0.60107398
-0.29357898 0.0055427598 -0.60107398
-0.28796399 0.0055427598 -0.60107398
-0.28210449 0.0055389451 -0.600586
-0.2734375 0.0055351299 -0.60009801
-0.26818851 0.0055427598 -0.60107398
-0.262573 0.0055427598 -0.60107398
-0.25707999 0.00554848 -0.6015625
-0.25158697 0.0055542002 -0.60205102
-0.247437 0.0055542002 -0.60205102
-0.24322501 0.0055542002 -0.60205102
-0.237488 0.0055542002 -0.60205102
-0.2318725 0.0055542002 -0.60205102
-0.227661 0.0055542002 -0.60205102
-0.2233275 0.0055542002 -0.60205102
-0.21771249 0.0055542002 -0.60205102
-0.21057101 0.0055542002 -0.60205102
-0.206909 0.0055656452 -0.60351551
-0.201538 0.0055751801 -0.60449201
-0.19738799 0.0055808998 -0.60497999
-0.19238299 0.0069675446 -0.602539
-0.187378 0.0083541898 -0.60009801
-0.183899 0.0069675446 -0.602539
-0.17822251 0.0055561098 -0.602539
-0.1728515 0.0055656452 -0.60351551
-0.160156 0.0055694599 -0.60400403
-0.157593 0.0055808998 -0.60497999
-0.14501999 0.0083541898 -0.60009801
-0.142212 0.0083541898 -0.60009801
-0.1379395 0.0083541898 -0.60009801
-0.132263 0.0083541898 -0.60009801
-0.12664801 0.0083541898 -0.60009801
-0.122437 0.0083541898 -0.60009801
-0.119629 0.0083541898 -0.60009801
-0.112549 0.0083541898 -0.60009801
-0.107025 0.0083618201 -0.600586
-0.102112 0.0055808998 -0.60497999
-0.097228996 0.0083694505 -0.60107398
-0.09295655 0.0083694505 -0.60107398
-0.087310806 0.0083694505 -0.60107398
-0.0829468 0.0055351299 -0.60009801
0.068176299 0.0083694505 -0.60107398
0.072387703 0.0083694505 -0.60107398
0.076629654 0.0083694505 -0.60107398
0.083984397 0.0083999597 -0.60302699
0.088378899 0.00840759 -0.60400403
0.092834502 0.0084228497 -0.60497999
0.097076401 0.0084228497 -0.60497999
0.1027525 0.0084228497 -0.60497999
0.1084595 0.0084228497 -0.60497999
0.112732 0.0084228497 -0.60497999
0.11682101 0.00840759 -0.60400403
0.1224975 0.00840759 -0.60400403
0.128113 0.00840759 -0.60400403
0.13244601 0.00840759 -0.60400403
0.13677999 0.0084152203 -0.60449201
0.14257801 0.0084228497 -0.60497999
0.1481325 0.0084152203 -0.60449201
0.18383799 0.0084228497 -0.60497999
0.187805 0.00840759 -0.60400403
0.19354251 0.00840759 -0.60400403
0.197754 0.00840759 -0.60400403
0.2020265 0.00840759 -0.60400403
0.208069 0.0084228497 -0.60497999
0.21228001 0.0084228497 -0.60497999
0.21661401 0.0084228497 -0.60497999
0.22229001 0.0084228497 -0.60497999
0.2279665 0.0084228497 -0.60497999
0.2323 0.0084228497 -0.60497999
0.089233398 0.0111771 -0.60009801
0.093444802 0.0111771 -0.60009801
0.097656302 0.0111771 -0.60009801
0.10192899 0.0111771 -0.60009801
0.107544 0.0111771 -0.60009801
0.111816 0.0111771 -0.60009801
0.134399 0.0111771 -0.60009801
0.137207 0.0111771 -0.60009801
0.1414185 0.0111771 -0.60009801
0.147156 0.01118855 -0.600586
0.15307599 0.011207599 -0.6015625
0.157471 0.0112152 -0.60205102
0.16168201 0.0112152 -0.60205102
0.1675415 0.011222851 -0.602539
0.17303449 0.0112152 -0.60205102
0.17852801 0.011207599 -0.6015625
0.18261699 0.0112 -0.60107398
0.1867065 0.01118855 -0.600586
0.19220001 0.0111771 -0.60009801
0.197815 0.0111771 -0.60009801
0.202393 0.0112 -0.60107398
0.206726 0.0112 -0.60107398
0.21280932 0.012138367 -0.60107434
0.21795675 0.01260755 -0.60107452
0.22306299 0.013071666 -0.60074902
0.22709133 0.012143433 -0.60140002
0.23223874 0.012611375 -0.60131848
0.23818976 0.01262665 -0.60205048
0.24340801 0.013099667 -0.60205066
0.24768066 0.012184166 -0.60335302
0.25274676 0.01264955 -0.60302752
0.25773099 0.013114934 -0.60270202
0.26245123 0.012638099 -0.602539
0.26733401 0.012176533 -0.60302734
0.27227777 0.012638099 -0.602539
0.27766934 0.013114934 -0.60270202
0.28181931 0.012189235 -0.60367835
0.2872315 0.012668599 -0.60400349
0.29272503 0.014080049 -0.60351551
0.29711899 0.0140915 -0.60400403
0.30200201 0.0141144 -0.60497999
0.30615199 0.0141144 -0.60497999
0.23876999 0.0168152 -0.60009801
0.242981 0.0168152 -0.60009801
0.24731401 0.0168152 -0.60009801
0.25146499 0.0168152 -0.60009801
0.25708002 0.0168152 -0.60009801
0.26269501 0.0168152 -0.60009801
0.26831049 0.0168152 -0.60009801
0.27270499 0.0168152 -0.60009801
0.27734366 0.017756166 -0.60009801
0.28271502 0.018241901 -0.600586
0.28735352 0.0182724 -0.6015625
0.29199201 0.018291475 -0.60205078
0.29760766 0.018798832 -0.60302699
0.30167633 0.017873166 -0.60367835
0.30725098 0.018363975 -0.60424805
0.31290698 0.018859867 -0.60497999
0.37451199 0.019805901 -0.60497999
0.37744099 0.019805901 -0.60497999
0.38159201 0.019805901 -0.60497999
0.385986 0.019805901 -0.60497999
0.282471 0.0224609 -0.60009801
0.28710899 0.022506701 -0.60107398
0.29174799 0.02252195 -0.6015625
0.29785198 0.022560101 -0.602539
0.302246 0.022583 -0.60302699
0.307129 0.022613499 -0.60400403
0.31335449 0.0226593 -0.60497999
0.31762701 0.0226593 -0.60497999
0.37451199 0.0226593 -0.60497999
0.37744099 0.0226593 -0.60497999
0.38159201 0.0226593 -0.60497999
0.38732898 0.0226593 -0.60497999
0.27832001 0.028106701 -0.60009801
0.28259298 0.026706699 -0.60034204
0.28710899 0.02674105 -0.60107398
0.29187 0.026775349 -0.60180676
0.29797399 0.026828773 -0.60278296
0.30249 0.0268631 -0.60351551
0.30725101 0.026889825 -0.60424805
0.31335449 0.0269241 -0.60497999
0.37451199 0.025497399 -0.60497999
0.37744099 0.025497399 -0.60497999
0.38159201 0.025497399 -0.60497999
0.38732898 0.025497399 -0.60497999
0.207764 0.0337524 -0.60009801
0.21197501 0.0337524 -0.60009801
0.21759051 0.032341 -0.60009801
0.2232665 0.032341 -0.60009801
0.227539 0.032341 -0.60009801
0.23175049 0.032341 -0.60009801
0.23736599 0.032341 -0.60009801
0.242513 0.032811467 -0.60009801
0.24731401 0.0337524 -0.60009801
0.25146499 0.0337524 -0.60009801
0.25756836 0.032811467 -0.60009801
0.26269501 0.032341 -0.60009801
0.26798502 0.031890903 -0.60042334
0.27197266 0.032852199 -0.60074866
0.27709973 0.032371551 -0.600586
0.28320301 0.032432549 -0.6015625
0.28759801 0.032455452 -0.60205102
0.29235828 0.032482151 -0.60278296
0.296875 0.03252415 -0.60351551
0.30157474 0.0325699 -0.60424805
0.30712867 0.032135036 -0.60497999
0.197815 0.039398201 -0.60009801
0.20355201 0.037979152 -0.60009801
0.207947 0.038009651 -0.600586
0.21234149 0.03804015 -0.60107398
0.21813974 0.038070701 -0.6015625
0.222473 0.038070701 -0.6015625
0.2266845 0.038070701 -0.6015625
0.2323 0.038070701 -0.6015625
0.237793 0.03804015 -0.60107398
0.243347 0.038024899 -0.60082996
0.2474975 0.038009651 -0.600586
0.25164801 0.038009651 -0.600586
0.25756848 0.03804015 -0.60107398
0.262858 0.037587501 -0.60139966
0.26676431 0.038553901 -0.60172534
0.27221704 0.038116448 -0.60229504
0.27801502 0.038131699 -0.602539
0.28271502 0.038208053 -0.60351551
0.28698725 0.038208053 -0.60351551
0.29321301 0.03826905 -0.60449201
0.297607 0.038299553 -0.60497999
0.30200201 0.036865201 -0.60497999
0.19360401 0.042205799 -0.60009801
0.197815 0.042205799 -0.60009801
0.202393 0.042297401 -0.60107398
0.206726 0.042297401 -0.60107398
0.21270749 0.042358398 -0.60205102
0.21832299 0.042358398 -0.60205102
0.222656 0.042358398 -0.60205102
0.2268675 0.042358398 -0.60205102
0.232483 0.042358398 -0.60205102
0.23822001 0.042358398 -0.60205102
0.242432 0.042358398 -0.60205102
0.24664301 0.042358398 -0.60205102
0.25231951 0.042358398 -0.60205102
0.25793451 0.042358398 -0.60205102
0.26269501 0.0424194 -0.60302699
0.266846 0.0424194 -0.60302699
0.272827 0.042465203 -0.60351551
0.27734399 0.042511001 -0.60400403
0.28149402 0.042511001 -0.60400403
0.28772002 0.042571999 -0.60497999
0.29199201 0.042571999 -0.60497999
0.1781005 0.0478516 -0.60009801
0.182373 0.0478516 -0.60009801
0.1865845 0.04644775 -0.60009801
0.19238299 0.0464935 -0.600586
0.198181 0.046524048 -0.60107398
0.202576 0.04656985 -0.6015625
0.20696999 0.046592724 -0.60180676
0.21289076 0.0466461 -0.602539
0.21728501 0.046676651 -0.60302699
0.22164924 0.04669955 -0.60327125
0.22741701 0.046722449 -0.60351551
0.23309325 0.046722449 -0.60351551
0.2385865 0.046676651 -0.60302699
0.242615 0.0466461 -0.602539
0.24688725 0.0466461 -0.602539
0.2525025 0.0466461 -0.602539
0.25797534 0.046203632 -0.60302699
0.26204434 0.047210734 -0.60367835
0.267456 0.046791073 -0.60424805
0.27319324 0.04681395 -0.60449201
0.277832 0.046844501 -0.60497999
0.28198248 0.045410201 -0.60497999
0.28637701 0.045410201 -0.60497999
0.097656302 0.0534973 -0.60009801
0.10192899 0.0534973 -0.60009801
0.10614 0.0534973 -0.60009801
0.162598 0.0534973 -0.60009801
0.16680899 0.0534973 -0.60009801
0.1724245 0.052093498 -0.60009801
0.17825325 0.052139301 -0.600586
0.18261699 0.0521851 -0.60107398
0.18695074 0.052207973 -0.60131824
0.19271851 0.05223085 -0.6015625
0.19854751 0.052261353 -0.60205102
0.202759 0.052261353 -0.60205102
0.20724474 0.052330025 -0.60278296
0.21316549 0.052375775 -0.60327125
0.21765099 0.052444451 -0.60400403
0.22192401 0.052444451 -0.60400403
0.22778325 0.052490253 -0.60449201
0.23327649 0.052444451 -0.60400403
0.23754901 0.052444451 -0.60400403
0.24169901 0.052421547 -0.60375977
0.24731451 0.052398652 -0.60351551
0.253052 0.052421551 -0.60375977
0.25732401 0.052444451 -0.60400403
0.26190203 0.052490253 -0.60449201
0.26733366 0.05206297 -0.60497999
0.27197301 0.051116899 -0.60497999
0.082153298 0.0591431 -0.60009801
0.087829575 0.057769753 -0.60034204
0.093017571 0.057311967 -0.60042334
0.096842468 0.058288533 -0.60074866
0.10200525 0.057800252 -0.600586
0.1076355 0.057800252 -0.600586
0.11331175 0.057800248 -0.600586
0.1175235 0.057800248 -0.600586
0.12178025 0.057800252 -0.600586
0.12738025 0.057800248 -0.600586
0.133026 0.057800248 -0.600586
0.137329 0.057800248 -0.600586
0.14147949 0.057769753 -0.60034204
0.147034 0.05773925 -0.60009801
0.152649 0.05773925 -0.60009801
0.15838599 0.05773925 -0.60009801
0.16271999 0.057800248 -0.600586
0.166931 0.057800248 -0.600586
0.1727905 0.057846047 -0.60107398
0.17712399 0.057891849 -0.6015625
0.1815795 0.057937652 -0.60205102
0.1873475 0.057983398 -0.602539
0.1930235 0.057983398 -0.602539
0.19738799 0.058029152 -0.60302699
0.20172101 0.058029152 -0.60302699
0.2075195 0.058074947 -0.60351551
0.212972 0.057647735 -0.60400403
0.21708201 0.058705669 -0.60497999
0.22229001 0.05822755 -0.60497999
0.22796649 0.05822755 -0.60497999
0.2323 0.05822755 -0.60497999
0.2364195 0.058204673 -0.60473597
0.24203476 0.0581818 -0.60449201
0.24771126 0.0581818 -0.60449201
0.25335699 0.0581818 -0.60449201
0.25781301 0.05822755 -0.60497999
0.26163736 0.057749435 -0.60497999
-0.41129532 0.063832603 -0.60009801
-0.407471 0.063369751 -0.60009801
-0.40454099 0.064758301 -0.60009801
-0.36523399 0.064758301 -0.60009801
-0.36230499 0.064758301 -0.60009801
-0.35803199 0.064758301 -0.60009801
-0.35376 0.064758301 -0.60009801
0.072265603 0.064758301 -0.60009801
0.076507546 0.063369751 -0.60009801
0.082244873 0.063453704 -0.60082996
0.087483764 0.063008666 -0.60107398
0.092163101 0.062072799 -0.60107398
0.09658815 0.062194798 -0.60205102
0.1022645 0.062194798 -0.60205102
0.10791 0.062194798 -0.60205102
0.1135865 0.062194798 -0.60205102
0.117859 0.062194798 -0.60205102
0.12207051 0.062194798 -0.60205102
0.12774649 0.062194798 -0.60205102
0.1331175 0.062072799 -0.60107398
0.13745099 0.062072799 -0.60107398
0.14166251 0.062072799 -0.60107398
0.147278 0.062072799 -0.60107398
0.15295401 0.062072799 -0.60107398
0.15722699 0.062072799 -0.60107398
0.161438 0.062072799 -0.60107398
0.167053 0.062072799 -0.60107398
0.17303449 0.062194798 -0.60205102
0.177246 0.062194798 -0.60205102
0.181702 0.062240601 -0.602539
0.1875 0.062286399 -0.60302699
0.193176 0.062286399 -0.60302699
0.19738799 0.062286399 -0.60302699
0.2020265 0.062408399 -0.60400403
0.2077025 0.062408399 -0.60400403
0.21228001 0.0625 -0.60497999
0.21661401 0.0625 -0.60497999
0.220825 0.0625 -0.60497999
0.22937 0.0625 -0.60497999
0.2323 0.0625 -0.60497999
0.23651099 0.0625 -0.60497999
0.24224851 0.0625 -0.60497999
0.24792501 0.0625 -0.60497999
0.25353998 0.0625 -0.60497999
-0.41174299 0.067626998 -0.60009801
-0.407471 0.067626998 -0.60009801
-0.40454099 0.067626998 -0.60009801
-0.37646499 0.067626998 -0.60009801
-0.3721925 0.067626998 -0.60009801
-0.366577 0.067626998 -0.60009801
-0.36230499 0.067626998 -0.60009801
-0.35803199 0.067626998 -0.60009801
-0.35241699 0.067626998 -0.60009801
-0.34814501 0.067626998 -0.60009801
0.068054199 0.067626998 -0.60009801
0.072265603 0.067626998 -0.60009801
0.076629654 0.067749001 -0.60107398
0.082275398 0.067749001 -0.60107398
0.088582367 0.066874199 -0.60205102
0.092346199 0.06640625 -0.60205102
0.09658815 0.06640625 -0.60205102
0.10234076 0.066467248 -0.602539
0.1080015 0.066467248 -0.602539
0.1122745 0.066467248 -0.602539
0.1166075 0.066528298 -0.60302699
0.122223 0.066497773 -0.60278296
0.12783825 0.066467248 -0.602539
0.133362 0.06640625 -0.60205102
0.137573 0.06640625 -0.60205102
0.14190701 0.06640625 -0.60205102
0.147522 0.06640625 -0.60205102
0.15325901 0.06640625 -0.60205102
0.157471 0.06640625 -0.60205102
0.16168201 0.06640625 -0.60205102
0.16741949 0.06640625 -0.60205102
0.17318724 0.066467248 -0.602539
0.17761201 0.066528298 -0.60302699
0.18191549 0.066558823 -0.60327125
0.1877135 0.066619873 -0.60375977
0.19354251 0.066650398 -0.60400403
0.197754 0.066650398 -0.60400403
0.20208749 0.066680923 -0.60424805
0.2079775 0.066726699 -0.60473597
0.21228001 0.065307602 -0.60497999
0.21521001 0.065307602 -0.60497999
0.23651099 0.065307602 -0.60497999
0.24224851 0.065307602 -0.60497999
0.24646001 0.065307602 -0.60497999
-0.37735999 0.071370468 -0.60009801
-0.3721925 0.071838401 -0.60009801
-0.366577 0.071838401 -0.60009801
-0.36230499 0.071838401 -0.60009801
-0.35803199 0.071838401 -0.60009801
-0.35241699 0.071838401 -0.60009801
-0.346802 0.071838401 -0.60009801
-0.342529 0.071838401 -0.60009801
-0.33825701 0.073242202 -0.60009801
0.063781701 0.071838401 -0.60009801
0.068084724 0.071868926 -0.60034204
0.072387703 0.071960449 -0.60107398
0.076629654 0.071960449 -0.60107398
0.082427993 0.072082505 -0.60205102
0.088104248 0.072082505 -0.60205102
0.092346199 0.072082505 -0.60205102
0.096649155 0.072143555 -0.602539
0.102417 0.072204605 -0.60302699
0.108093 0.072204605 -0.60302699
0.112366 0.072204605 -0.60302699
0.11671425 0.072265655 -0.60351551
0.12239075 0.072265655 -0.60351551
0.12799099 0.07223513 -0.60327125
0.132202 0.072204605 -0.60302699
0.13647476 0.07223513 -0.60327125
0.14227301 0.072265655 -0.60351551
0.147888 0.072265655 -0.60351551
0.153117 0.071777374 -0.60335267
0.15694165 0.072753936 -0.60367835
0.16198701 0.072204605 -0.60302699
0.16772476 0.072235122 -0.60327125
0.17297368 0.071777366 -0.60335267
0.17692034 0.072794639 -0.60400403
0.182129 0.072326705 -0.60400403
0.18798825 0.072387703 -0.60449201
0.19226101 0.072387703 -0.60449201
0.19671649 0.072448701 -0.60497999
0.20186366 0.071980767 -0.60497999
0.20666499 0.0710449 -0.60497999
-0.37174499 0.077006035 -0.60009801
-0.366577 0.077484146 -0.60009801
-0.36230499 0.077484146 -0.60009801
-0.35803199 0.077484153 -0.60009801
-0.35241699 0.077484146 -0.60009801
-0.346802 0.077484146 -0.60009801
-0.342529 0.077484146 -0.60009801
-0.33825698 0.077484146 -0.60009801
-0.33264148 0.077484146 -0.60009801
0.056762703 0.078918502 -0.60009801
0.062423676 0.077514648 -0.60034204
0.068176299 0.077636704 -0.60107398
0.072387703 0.077636704 -0.60107398
0.07673642 0.077728279 -0.60180676
0.082427993 0.077758804 -0.60205102
0.088104248 0.077758804 -0.60205102
0.092346199 0.077758804 -0.60205102
0.096649155 0.077819854 -0.602539
0.102417 0.077880904 -0.60302699
0.108093 0.077880904 -0.60302699
0.112549 0.0780029 -0.60400403
0.11682101 0.0780029 -0.60400403
0.1224975 0.0780029 -0.60400403
0.128113 0.0780029 -0.60400403
0.13244601 0.0780029 -0.60400403
0.136719 0.078048676 -0.60424805
0.1424865 0.078094453 -0.60449201
0.14813225 0.078094453 -0.60449201
0.152466 0.078094453 -0.60449201
0.15667725 0.078094445 -0.60449201
0.162384 0.078094445 -0.60449201
0.16806051 0.078094445 -0.60449201
0.172363 0.078094453 -0.60449201
0.17660525 0.078094453 -0.60449201
0.18243399 0.078155503 -0.60497999
0.18817151 0.078155495 -0.60497999
0.19238301 0.078155503 -0.60497999
0.1967165 0.076721199 -0.60497999
-0.36230499 0.081726097 -0.60009801
-0.35758433 0.082661964 -0.60009801
-0.35241699 0.083129898 -0.60009801
-0.346802 0.083129898 -0.60009801
-0.342529 0.083129898 -0.60009801
-0.33825698 0.083129898 -0.60009801
-0.33264148 0.083129898 -0.60009801
-0.32836899 0.083129898 -0.60009801
0.048294052 0.084533699 -0.60009801
0.0525208 0.083129898 -0.60009801
0.056793228 0.083175674 -0.60034204
0.0625 0.083282441 -0.60107398
0.068222046 0.083343498 -0.6015625
0.072509803 0.083404548 -0.60205102
0.076782197 0.083404556 -0.60205102
0.082427993 0.083404556 -0.60205102
0.088180527 0.083465554 -0.602539
0.092437744 0.083465546 -0.602539
0.0967407 0.083557099 -0.60302699
0.102417 0.083557099 -0.60302699
0.1081845 0.082214348 -0.60351551
0.112549 0.082275398 -0.60400403
0.11682101 0.082275398 -0.60400403
0.12271149 0.082397498 -0.60497999
0.12835699 0.082397498 -0.60497999
0.132568 0.082397498 -0.60497999
0.136902 0.082397498 -0.60497999
0.14257801 0.082397498 -0.60497999
0.1482545 0.082397498 -0.60497999
0.15258799 0.082397498 -0.60497999
0.1567995 0.082397498 -0.60497999
0.1625365 0.082397498 -0.60497999
0.16821301 0.082397498 -0.60497999
0.17248499 0.082397498 -0.60497999
0.17675799 0.082397498 -0.60497999
0.18243399 0.082397498 -0.60497999
0.186768 0.082397498 -0.60497999
-0.35241699 0.087341301 -0.60009801
-0.346802 0.087341301 -0.60009801
-0.342529 0.087341301 -0.60009801
-0.33825701 0.087341301 -0.60009801
-0.33264148 0.087341301 -0.60009801
-0.32702649 0.087341301 -0.60009801
0.042648301 0.087341301 -0.60009801
0.048294052 0.087341301 -0.60009801
0.052612301 0.087524399 -0.60107398
0.056869499 0.087524399 -0.60107398
0.06256105 0.087585449 -0.6015625
0.0682678 0.087646499 -0.60205102
0.072509803 0.087646499 -0.60205102
0.076904297 0.087829597 -0.60302699
0.082580596 0.087829597 -0.60302699
0.088256799 0.087829597 -0.60302699
0.092529297 0.087829597 -0.60302699
0.0967407 0.087829597 -0.60302699
0.1026 0.087951697 -0.60400403
0.1082765 0.086517349 -0.60400403
0.1126405 0.086578354 -0.60449201
0.1170045 0.086669907 -0.60497999
0.1227115 0.086669907 -0.60497999
0.12835699 0.085266098 -0.60497999
0.132568 0.085266098 -0.60497999
0.136902 0.085266098 -0.60497999
0.16394 0.085266098 -0.60497999
0.16821301 0.085266098 -0.60497999
0.17248499 0.0866699 -0.60497999
0.17626965 0.086201966 -0.60497999
0.18243399 0.085266098 -0.60497999
-0.35107401 0.091613799 -0.60009801
-0.346802 0.091613799 -0.60009801
-0.34143049 0.091690071 -0.600586
-0.33740199 0.09176635 -0.60107398
-0.33313 0.091735847 -0.60082996
-0.3271485 0.091659568 -0.60034204
-0.32141101 0.091613799 -0.60009801
-0.317139 0.0930176 -0.60009801
-0.31420901 0.0930176 -0.60009801
0.024307299 0.0930176 -0.60009801
0.02854155 0.0930176 -0.60009801
0.032775901 0.091613799 -0.60009801
0.037033074 0.091705352 -0.600586
0.042701703 0.091735847 -0.60082996
0.048400901 0.091796875 -0.60131824
0.0526581 0.0918274 -0.6015625
0.056938149 0.091873176 -0.60180676
0.062652595 0.091964722 -0.60229504
0.068359375 0.092041023 -0.60278296
0.072631799 0.092071548 -0.60302699
0.076934829 0.092102051 -0.60327125
0.082641602 0.092132553 -0.60351551
0.088317856 0.092132546 -0.60351551
0.092590347 0.092132553 -0.60351551
0.096923798 0.092224099 -0.60400403
0.10264575 0.092269875 -0.60424805
0.1084595 0.092376694 -0.60497999
0.112732 0.090942398 -0.60497999
0.115601 0.090942398 -0.60497999
-0.346802 0.097228996 -0.60009801
-0.34143049 0.097320549 -0.600586
-0.33740199 0.097412102 -0.60107398
-0.33325201 0.097412102 -0.60107398
-0.32781976 0.097503647 -0.6015625
-0.3218995 0.097412109 -0.60107398
-0.31738299 0.097320557 -0.600586
-0.31317124 0.097320557 -0.600586
-0.30725098 0.097229004 -0.60009801
-0.30297899 0.098632798 -0.60009801
0.0045547499 0.098632798 -0.60009801
0.0073776199 0.098632798 -0.60009801
0.01161195 0.098632798 -0.60009801
0.01725005 0.097229004 -0.60009801
0.022907274 0.09727478 -0.60034204
0.028575899 0.097366326 -0.60082996
0.032836899 0.097412102 -0.60107398
0.037094124 0.097503647 -0.6015625
0.0428009 0.097564705 -0.60205102
0.048484802 0.097610474 -0.60229504
0.052749649 0.09765625 -0.602539
0.057052597 0.097747803 -0.60302699
0.062744126 0.097778328 -0.60327125
0.068481445 0.097854629 -0.60375977
0.072753899 0.097900398 -0.60400403
0.077026397 0.097900398 -0.60400403
0.082748398 0.097946167 -0.60424805
0.0884552 0.097991943 -0.60449201
0.09274295 0.097991943 -0.60449201
0.097045869 0.098022476 -0.60473597
0.10275251 0.098052993 -0.60497999
0.107056 0.096618697 -0.60497999
0.144043 0.099487297 -0.60497999
0.1482545 0.098052993 -0.60497999
0.15258799 0.098052993 -0.60497999
0.1567995 0.098052993 -0.60497999
0.1625365 0.098052993 -0.60497999
0.166748 0.099487297 -0.60497999
-0.346802 0.10290501 -0.60009801
-0.34167498 0.1030885 -0.60107398
-0.33630347 0.10316475 -0.6015625
-0.332275 0.103241 -0.60205102
-0.328125 0.103241 -0.60205102
-0.32251 0.103241 -0.60205102
-0.31722 0.103719 -0.60205102
-0.31298831 0.10262067 -0.60107398
-0.30761701 0.1030425 -0.60082996
-0.30208364 0.103373 -0.60009801
-0.065978996 0.104309 -0.60009801
-0.0617676 0.102905 -0.60009801
-0.057525601 0.10290501 -0.60009801
-0.05329895 0.10290501 -0.60009801
-0.047653198 0.102905 -0.60009801
-0.042480469 0.103373 -0.60009801
-0.037780799 0.104309 -0.60009801
-0.0067329402 0.104309 -0.60009801
-0.0020287801 0.103373 -0.60009801
0.0031442649 0.10290501 -0.60009801
0.0073833447 0.1029965 -0.600586
0.011621499 0.10299651 -0.600586
0.017280551 0.1030885 -0.60107398
0.022941601 0.1030885 -0.60107398
0.028132133 0.10268167 -0.60139966
0.031931534 0.103719 -0.60205102
0.037124649 0.103241 -0.60205102
0.042846672 0.10337825 -0.60278296
0.048538201 0.103424 -0.60302699
0.052795399 0.103424 -0.60302699
0.057098374 0.103485 -0.60351551
0.062805198 0.1035765 -0.60400403
0.068033837 0.10310867 -0.60400403
0.072875999 0.102356 -0.60497999
0.0771484 0.102356 -0.60497999
0.082855254 0.102356 -0.60497999
0.088531494 0.102356 -0.60497999
0.092834502 0.102356 -0.60497999
0.097076401 0.102356 -0.60497999
0.144043 0.102356 -0.60497999
0.1482545 0.102356 -0.60497999
0.15258799 0.102356 -0.60497999
0.1567995 0.102356 -0.60497999
0.1625365 0.102356 -0.60497999
0.16821301 0.102356 -0.60497999
-0.35107401 0.109924 -0.60009801
-0.346802 0.1085205 -0.60009801
-0.34167498 0.1073 -0.60107398
-0.33666998 0.107483 -0.60205102
-0.33117652 0.1075745 -0.602539
-0.32714799 0.107666 -0.60302699
-0.32299799 0.107666 -0.60302699
-0.31677249 0.107483 -0.60205102
-0.3125 0.107483 -0.60205102
-0.30773902 0.1073 -0.60107398
-0.30118832 0.10805267 -0.60009801
-0.29736301 0.1085205 -0.60009801
-0.293091 0.109924 -0.60009801
-0.066914864 0.10898834 -0.60009801
-0.0617676 0.107117 -0.60009801
-0.057617199 0.1073 -0.60107398
-0.053390499 0.1073 -0.60107398
-0.0477295 0.1073 -0.60107398
-0.042037949 0.1072085 -0.600586
-0.037780799 0.107117 -0.60009801
-0.0335388 0.10852051 -0.60009801
-0.0293121 0.109924 -0.60009801
-0.0123749 0.109924 -0.60009801
-0.0081424704 0.1085205 -0.60009801
-0.0029694203 0.10805267 -0.60009801
0.0031495099 0.1073 -0.60107398
0.00738907 0.1073 -0.60107398
0.01163105 0.1073 -0.60107398
0.0172958 0.1073915 -0.6015625
0.022979751 0.107483 -0.60205102
0.0272217 0.107483 -0.60205102
0.031463601 0.107483 -0.60205102
0.037155151 0.1075745 -0.602539
0.04286195 0.107666 -0.60302699
0.048538201 0.107666 -0.60302699
0.052795399 0.107666 -0.60302699
0.05714415 0.107849 -0.60400403
0.062805198 0.107849 -0.60400403
0.0671997 0.108032 -0.60497999
0.07144165 0.106598 -0.60497999
0.0771484 0.106598 -0.60497999
0.082855254 0.106598 -0.60497999
0.088531494 0.105164 -0.60497999
0.092834502 0.105164 -0.60497999
0.144043 0.106598 -0.60497999
0.1482545 0.106598 -0.60497999
0.152466 0.1065065 -0.60449201
0.15667725 0.1065065 -0.60449201
0.1625365 0.106598 -0.60497999
0.16821299 0.106598 -0.60497999
-0.35107401 0.112793 -0.60009801
-0.346802 0.112793 -0.60009801
-0.34167498 0.11154149 -0.60107398
-0.33666998 0.11175551 -0.60205102
-0.331543 0.11193851 -0.60302699
-0.32714799 0.11193851 -0.60302699
-0.32299799 0.1119385 -0.60302699
-0.31713897 0.11189275 -0.60278296
-0.31274402 0.111847 -0.602539
-0.30822724 0.11169425 -0.60180676
-0.30257168 0.11201966 -0.60107398
-0.29785201 0.112976 -0.60107398
-0.293091 0.112793 -0.60009801
-0.2874755 0.112793 -0.60009801
-0.2818605 0.112793 -0.60009801
-0.071655303 0.112793 -0.60009801
-0.067382798 0.112793 -0.60009801
-0.061874397 0.11154149 -0.60107398
-0.057678249 0.111633 -0.6015625
-0.053436272 0.111633 -0.6015625
-0.04776765 0.111633 -0.6015625
-0.042083725 0.11158726 -0.60131824
-0.036895767 0.11201966 -0.60107398
-0.032134999 0.112793 -0.60009801
-0.0279007 0.112793 -0.60009801
-0.0151978 0.112793 -0.60009801
-0.0123749 0.112793 -0.60009801
-0.0081424704 0.112793 -0.60009801
-0.0020325966 0.11201966 -0.60107398
0.0031495099 0.1115415 -0.60107398
0.0073966999 0.111633 -0.6015625
0.0116501 0.11175551 -0.60205102
0.0173111 0.11175551 -0.60205102
0.022987375 0.11180125 -0.60229504
0.027244601 0.111847 -0.602539
0.0315056 0.11189275 -0.60278296
0.03718565 0.1119385 -0.60302699
0.042884849 0.11198425 -0.60327125
0.048095703 0.11153167 -0.60335267
0.051940933 0.11258934 -0.60400403
0.05714415 0.1121215 -0.60400403
0.062835723 0.11216725 -0.60424805
0.0671997 0.11230449 -0.60497999
0.07144165 0.11230449 -0.60497999
0.076680467 0.11183666 -0.60497999
0.144043 0.11230449 -0.60497999
0.1482545 0.11230449 -0.60497999
0.152344 0.1121215 -0.60400403
0.156555 0.11212151 -0.60400403
0.1623535 0.11221299 -0.60449201
0.16821301 0.11230449 -0.60497999
-0.35107401 0.1170045 -0.60009801
-0.346802 0.1170045 -0.60009801
-0.34167498 0.1171875 -0.60107398
-0.33666998 0.117401 -0.60205102
-0.331543 0.1175845 -0.60302699
-0.32788101 0.117798 -0.60400403
-0.323486 0.117798 -0.60400403
-0.31774899 0.11773701 -0.60375977
-0.31188977 0.117676 -0.60351551
-0.307129 0.117493 -0.602539
-0.30273449 0.117447 -0.60229504
-0.29728201 0.117818 -0.60172534
-0.29329431 0.11680099 -0.60139966
-0.28784201 0.11714175 -0.60082996
-0.28210449 0.11709601 -0.600586
-0.27758801 0.1170045 -0.60009801
-0.27392566 0.11747233 -0.60009801
-0.072591163 0.11747233 -0.60009801
-0.067443848 0.117096 -0.600586
