# .PCD v0.7 - Point Cloud Data file format
VERSION 0.7
FIELDS x y z
SIZE 4 4 4
TYPE F F F
COUNT 1 1 1
WIDTH 1437
HEIGHT 1
VIEWPOINT 0 0 0 1 0 0 0
POINTS 1437
DATA ascii
-0.23553449 0.31054699 -0.58984399
-0.231445 0.31054699 -0.58984399
-0.250732 0.31347701 -0.58984399
-0.24804699 0.31347701 -0.58984399
-0.245239 0.31347701 -0.58984399
-0.24255399 0.31347701 -0.58984399
-0.239746 0.31347701 -0.58984399
-0.23553449 0.31347701 -0.58984399
-0.231445 0.31347701 -0.58984399
-0.253418 0.31616199 -0.58984399
-0.250732 0.31616199 -0.58984399
-0.24804699 0.31616199 -0.58984399
-0.245239 0.31616199 -0.58984399
-0.24255399 0.31616199 -0.58984399
-0.239746 0.31616199 -0.58984399
-0.23553449 0.31616199 -0.58984399
-0.231445 0.31616199 -0.58984399
-0.22863799 0.31616199 -0.58984399
-0.25634801 0.31909201 -0.58984399
-0.253418 0.31909201 -0.58984399
-0.250732 0.31909201 -0.58984399
-0.24804699 0.31909201 -0.58984399
-0.244873 0.31835899 -0.58886701
-0.242065 0.31835899 -0.58886701
-0.23925801 0.31835899 -0.58886701
-0.23553449 0.31909201 -0.58984399
-0.231445 0.31909201 -0.58984399
-0.22863799 0.31909201 -0.58984399
-0.25634801 0.32177699 -0.58984399
-0.253418 0.32177699 -0.58984399
-0.25048798 0.32287598 -0.58935547
-0.24768101 0.32263201 -0.58886701
-0.244873 0.32263201 -0.58886701
-0.242065 0.32263201 -0.58886701
-0.23925801 0.32263201 -0.58886701
-0.236572 0.32263201 -0.58886701
-0.23299168 0.32234702 -0.58919269
-0.22863799 0.32177699 -0.58984399
-0.25634801 0.32446301 -0.58984399
-0.253418 0.32446301 -0.58984399
-0.25024399 0.32666001 -0.58886701
-0.24768101 0.32666001 -0.58886701
-0.244873 0.32666001 -0.58886701
-0.242065 0.32666001 -0.58886701
-0.23925801 0.32666001 -0.58886701
-0.236572 0.32666001 -0.58886701
-0.23260501 0.32556152 -0.58935547
-0.2297975 0.32556152 -0.58935547
-0.22583 0.32446301 -0.58984399
-0.25634801 0.327393 -0.58984399
-0.253418 0.327393 -0.58984399
-0.25024399 0.32958999 -0.58886701
-0.24768101 0.32958999 -0.58886701
-0.23376501 0.32958999 -0.58886701
-0.2297975 0.32849151 -0.58935547
-0.22583 0.327393 -0.58984399
-0.25634801 0.33142102 -0.58984399
-0.25329602 0.33117652 -0.58935547
-0.25024399 0.332275 -0.58886701
-0.24768101 0.332275 -0.58886701
-0.23376501 0.332275 -0.58886701
-0.22928865 0.33154267 -0.58919269
-0.22583 0.33142102 -0.58984399
0.323486 0.332764 -0.58984399
0.32641599 0.332764 -0.58984399
0.32910201 0.332764 -0.58984399
-0.25634801 0.335693 -0.58984399
-0.25317401 0.334961 -0.58886701
-0.25024399 0.334961 -0.58886701
-0.24768101 0.334961 -0.58886701
-0.22961399 0.334961 -0.58886701
-0.22583 0.335693 -0.58984399
-0.223022 0.335693 -0.58984399
0.29296899 0.335693 -0.58984399
0.29589799 0.335693 -0.58984399
0.29858401 0.335693 -0.58984399
0.30127001 0.335693 -0.58984399
0.32080099 0.335693 -0.58984399
0.323486 0.335693 -0.58984399
0.32641599 0.335693 -0.58984399
0.32910201 0.335693 -0.58984399
0.33178699 0.335693 -0.58984399
-0.25634801 0.338379 -0.58984399
-0.25317401 0.33789101 -0.58886701
-0.25024399 0.33789101 -0.58886701
-0.22961399 0.33789101 -0.58886701
-0.22583 0.338379 -0.58984399
-0.223022 0.338379 -0.58984399
0.28759801 0.338379 -0.58984399
0.29028299 0.338379 -0.58984399
0.29296899 0.338379 -0.58984399
0.29589799 0.338379 -0.58984399
0.29858401 0.338379 -0.58984399
0.30127001 0.338379 -0.58984399
0.30419901 0.338379 -0.58984399
0.306885 0.338379 -0.58984399
0.31945801 0.338379 -0.58984399
0.323486 0.338379 -0.58984399
0.32641599 0.338379 -0.58984399
0.32910201 0.338379 -0.58984399
0.33178699 0.338379 -0.58984399
0.33471701 0.338379 -0.58984399
-0.34887701 -0.0249481 -0.586914
-0.34545901 -0.024917601 -0.58593798
0.56738299 -0.019424399 -0.586914
0.461914 -0.0166473 -0.58593798
0.4646 -0.0166473 -0.58593798
0.57031298 -0.0166626 -0.586914
0.47192401 -0.0139389 -0.58789098
-0.164185 0.0137177 -0.58789098
-0.16149899 0.0137177 -0.58789098
-0.158691 0.0137177 -0.58789098
-0.208496 0.0164795 -0.58789098
-0.1698 0.0164795 -0.58789098
-0.16699199 0.0164795 -0.58789098
-0.16394 0.016449001 -0.586914
-0.16113301 0.016449001 -0.586914
-0.158447 0.016449001 -0.586914
-0.154541 0.0164795 -0.58789098
-0.213989 0.019241299 -0.58789098
-0.211182 0.019241299 -0.58789098
-0.208496 0.019241299 -0.58789098
-0.205688 0.019241299 -0.58789098
-0.203003 0.019241299 -0.58789098
-0.200195 0.019241299 -0.58789098
-0.19738799 0.019241299 -0.58789098
-0.194702 0.019241299 -0.58789098
-0.19189499 0.019241299 -0.58789098
-0.178101 0.019241299 -0.58789098
-0.175293 0.019241299 -0.58789098
-0.17248499 0.019241299 -0.58789098
-0.169434 0.019210801 -0.586914
-0.166748 0.019210801 -0.586914
-0.16394 0.019210801 -0.586914
-0.160889 0.0191803 -0.58593798
-0.158447 0.019210801 -0.586914
-0.154419 0.01922605 -0.58740246
-0.150391 0.019241299 -0.58789098
-0.14758299 0.019241299 -0.58789098
-0.144897 0.019241299 -0.58789098
-0.219482 0.022018399 -0.58789098
-0.21679699 0.022018399 -0.58789098
-0.213989 0.022018399 -0.58789098
-0.211182 0.022018399 -0.58789098
-0.208496 0.022018399 -0.58789098
-0.205688 0.022018399 -0.58789098
-0.203003 0.022018399 -0.58789098
-0.200195 0.022018399 -0.58789098
-0.19738799 0.022018399 -0.58789098
-0.194702 0.022018399 -0.58789098
-0.19049099 0.022018399 -0.58789098
-0.18640099 0.022018399 -0.58789098
-0.183594 0.022018399 -0.58789098
-0.180786 0.022018399 -0.58789098
-0.178101 0.022018399 -0.58789098
-0.174927 0.021972699 -0.586914
-0.172241 0.021972699 -0.586914
-0.169434 0.021972699 -0.586914
-0.166748 0.021972699 -0.586914
-0.16369601 0.0219421 -0.58593798
-0.160889 0.0219421 -0.58593798
-0.158447 0.021972699 -0.586914
-0.15564001 0.021972699 -0.586914
-0.15148899 0.021972699 -0.586914
-0.14758299 0.022018399 -0.58789098
-0.144897 0.022018399 -0.58789098
-0.14208999 0.022018399 -0.58789098
-0.139282 0.022018399 -0.58789098
-0.219482 0.0247803 -0.58789098
-0.21679699 0.0247803 -0.58789098
-0.213989 0.0247803 -0.58789098
-0.211182 0.0247803 -0.58789098
-0.208496 0.0247803 -0.58789098
-0.205688 0.0247803 -0.58789098
-0.203003 0.0247803 -0.58789098
-0.200195 0.0247803 -0.58789098
-0.19738799 0.0247803 -0.58789098
-0.194702 0.0247803 -0.58789098
-0.19049099 0.0247803 -0.58789098
-0.18640099 0.0247803 -0.58789098
-0.183594 0.0247803 -0.58789098
-0.180786 0.0247803 -0.58789098
-0.178101 0.0247803 -0.58789098
-0.174927 0.024734501 -0.586914
-0.172241 0.024734501 -0.586914
-0.169434 0.024734501 -0.586914
-0.166748 0.024734501 -0.586914
-0.16394 0.024734501 -0.586914
-0.16113301 0.024734501 -0.586914
-0.158447 0.024734501 -0.586914
-0.15564001 0.024734501 -0.586914
-0.15148899 0.024734501 -0.586914
-0.14758299 0.0247803 -0.58789098
-0.144897 0.0247803 -0.58789098
-0.14208999 0.0247803 -0.58789098
-0.139282 0.0247803 -0.58789098
-0.114441 0.0247803 -0.58789098
-0.219482 0.027542099 -0.58789098
-0.21679699 0.027542099 -0.58789098
-0.213989 0.027542099 -0.58789098
-0.211182 0.027542099 -0.58789098
-0.208496 0.027542099 -0.58789098
-0.205688 0.027542099 -0.58789098
-0.203003 0.027542099 -0.58789098
-0.200195 0.027542099 -0.58789098
-0.19738799 0.027542099 -0.58789098
-0.194702 0.027542099 -0.58789098
-0.19049099 0.027542099 -0.58789098
-0.18640099 0.027542099 -0.58789098
-0.183594 0.027542099 -0.58789098
-0.180786 0.027542099 -0.58789098
-0.178101 0.027542099 -0.58789098
-0.174927 0.027496301 -0.586914
-0.172241 0.027496301 -0.586914
-0.169434 0.027496301 -0.586914
-0.166748 0.027496301 -0.586914
-0.16394 0.027496301 -0.586914
-0.16113301 0.027496301 -0.586914
-0.158447 0.027496301 -0.586914
-0.15564001 0.027496301 -0.586914
-0.15161151 0.0275192 -0.58740246
-0.14758299 0.027542099 -0.58789098
-0.144897 0.027542099 -0.58789098
-0.14208999 0.027542099 -0.58789098
-0.213989 0.030319201 -0.58789098
-0.211182 0.030319201 -0.58789098
-0.208496 0.030319201 -0.58789098
-0.205688 0.030319201 -0.58789098
-0.203003 0.030319201 -0.58789098
-0.200195 0.030319201 -0.58789098
-0.19738799 0.030319201 -0.58789098
-0.194702 0.030319201 -0.58789098
-0.19049099 0.030319201 -0.58789098
-0.18640099 0.030319201 -0.58789098
-0.183594 0.030319201 -0.58789098
-0.180786 0.030319201 -0.58789098
-0.178101 0.030319201 -0.58789098
-0.175293 0.030319201 -0.58789098
-0.17248499 0.030319201 -0.58789098
-0.1698 0.030319201 -0.58789098
-0.166748 0.030258199 -0.586914
-0.16394 0.030258199 -0.586914
-0.16113301 0.030258199 -0.586914
-0.158447 0.030258199 -0.586914
-0.154541 0.030319201 -0.58789098
-0.150391 0.030319201 -0.58789098
-0.14758299 0.030319201 -0.58789098
-0.144897 0.030319201 -0.58789098
-0.205688 0.033081099 -0.58789098
-0.203003 0.033081099 -0.58789098
-0.200195 0.034454349 -0.58789098
-0.19738799 0.034454349 -0.58789098
-0.194702 0.034454349 -0.58789098
-0.19049099 0.034454349 -0.58789098
-0.18640099 0.034454349 -0.58789098
-0.183594 0.034454349 -0.58789098
-0.180786 0.034454349 -0.58789098
-0.178101 0.034454349 -0.58789098
-0.175293 0.034454349 -0.58789098
-0.17248499 0.034454349 -0.58789098
-0.1698 0.034454349 -0.58789098
-0.16699199 0.034454349 -0.58789098
-0.164185 0.034454349 -0.58789098
-0.16149899 0.034454349 -0.58789098
-0.158691 0.034454349 -0.58789098
-0.154541 0.034454349 -0.58789098
-0.150391 0.034454349 -0.58789098
-0.14758299 0.033081099 -0.58789098
-0.194702 0.038604699 -0.58789098
-0.19049099 0.038604699 -0.58789098
-0.18640099 0.038604699 -0.58789098
-0.183594 0.038604699 -0.58789098
-0.180786 0.038604699 -0.58789098
-0.178101 0.038604699 -0.58789098
-0.175293 0.038604699 -0.58789098
-0.17248499 0.038604699 -0.58789098
-0.1698 0.038604699 -0.58789098
-0.16699199 0.038604699 -0.58789098
-0.19049099 0.041381799 -0.58789098
-0.18640099 0.041381799 -0.58789098
-0.183594 0.041381799 -0.58789098
-0.180786 0.041381799 -0.58789098
-0.178101 0.041381799 -0.58789098
-0.189087 0.044128399 -0.58789098
-0.18640099 0.044128399 -0.58789098
-0.183594 0.044128399 -0.58789098
-0.180786 0.044128399 -0.58789098
-0.42700201 0.14086901 -0.58789098
-0.42700201 0.143677 -0.58789098
-0.424072 0.143677 -0.58789098
-0.42138699 0.143677 -0.58789098
-0.41870099 0.143677 -0.58789098
-0.42627001 0.14624 -0.586914
-0.42333999 0.14624 -0.586914
-0.42138699 0.146484 -0.58789098
-0.41870099 0.146484 -0.58789098
-0.41577101 0.146484 -0.58789098
-0.413086 0.146484 -0.58789098
-0.4104 0.146484 -0.58789098
-0.407471 0.146484 -0.58789098
-0.40478501 0.146484 -0.58789098
-0.42443848 0.14880401 -0.58642602
-0.420654 0.148926 -0.586914
-0.41796899 0.148926 -0.586914
-0.41528299 0.148926 -0.586914
-0.41235399 0.148926 -0.586914
-0.4104 0.14917 -0.58789098
-0.407471 0.14917 -0.58789098
-0.4034425 0.14917 -0.58789098
-0.42553699 0.151489 -0.58593798
-0.42285201 0.151489 -0.58593798
-0.41894549 0.151611 -0.58642602
-0.41528299 0.151733 -0.586914
-0.41235399 0.151733 -0.586914
-0.409668 0.151733 -0.586914
-0.406982 0.151733 -0.586914
-0.4034425 0.151978 -0.58789098
-0.39917001 0.151978 -0.58789098
-0.42285201 0.154175 -0.58593798
-0.41857898 0.154175 -0.58593798
-0.41455099 0.154175 -0.58593798
-0.411621 0.154175 -0.58593798
-0.409668 0.154419 -0.586914
-0.406982 0.154419 -0.586914
-0.4030765 0.15460201 -0.58740246
-0.39917001 0.15478501 -0.58789098
-0.39648399 0.15478501 -0.58789098
-0.417236 0.156982 -0.58593798
-0.41455099 0.156982 -0.58593798
-0.411621 0.156982 -0.58593798
-0.40893599 0.156982 -0.58593798
-0.406982 0.15722699 -0.586914
-0.404053 0.15722699 -0.586914
-0.4002685 0.15734899 -0.58740246
-0.39648399 0.157471 -0.58789098
-0.41455099 0.159668 -0.58593798
-0.411621 0.159668 -0.58593798
-0.40893599 0.159668 -0.58593798
-0.406982 0.160034 -0.586914
-0.404053 0.160034 -0.586914
-0.4002685 0.16015601 -0.58740246
-0.39648399 0.16027801 -0.58789098
-0.411621 0.162476 -0.58593798
-0.40893599 0.162476 -0.58593798
-0.40625 0.162476 -0.58593798
-0.404053 0.16271999 -0.586914
-0.4002685 0.162903 -0.58740246
-0.39648399 0.163086 -0.58789098
-0.411621 0.16662601 -0.58593798
-0.40893599 0.16662601 -0.58593798
-0.40625 0.16662601 -0.58593798
-0.404053 0.165527 -0.586914
-0.4002685 0.165649 -0.58740246
-0.39648399 0.16577099 -0.58789098
-0.411621 0.17077599 -0.58593798
-0.40893599 0.17077599 -0.58593798
-0.404053 0.16833501 -0.586914
-0.4002685 0.168457 -0.58740246
-0.41455099 0.173462 -0.58593798
-0.411621 0.173462 -0.58593798
-0.40893599 0.173462 -0.58593798
-0.406982 0.1724245 -0.586914
-0.403402 0.17207867 -0.58723968
-0.39917001 0.171387 -0.58789098
-0.41455099 0.17626999 -0.58593798
-0.411621 0.17626999 -0.58593798
-0.409668 0.176514 -0.586914
-0.406982 0.176514 -0.586914
-0.40299499 0.17594402 -0.58789098
-0.39917001 0.174072 -0.58789098
-0.417236 0.179077 -0.58593798
-0.41455099 0.179077 -0.58593798
-0.41235399 0.17932101 -0.586914
-0.409668 0.17932101 -0.586914
-0.406982 0.17932101 -0.586914
-0.4034425 0.17968801 -0.58789098
-0.417236 0.18176299 -0.58593798
-0.41455099 0.18176299 -0.58593798
-0.41235399 0.182129 -0.586914
-0.409668 0.182129 -0.586914
-0.407471 0.182373 -0.58789098
-0.40478501 0.182373 -0.58789098
-0.41857898 0.18457 -0.58593798
-0.41528299 0.18481401 -0.586914
-0.41235399 0.18481401 -0.586914
-0.4104 0.18518101 -0.58789098
-0.407471 0.18518101 -0.58789098
-0.42285201 0.18725599 -0.58593798
-0.41894549 0.18743899 -0.58642602
-0.41528299 0.187622 -0.586914
-0.413086 0.187988 -0.58789098
-0.4104 0.187988 -0.58789098
-0.42175299 0.19024649 -0.58642602
-0.41796899 0.19043 -0.586914
-0.41577101 0.19067401 -0.58789098
-0.413086 0.19067401 -0.58789098
-0.42443848 0.192993 -0.58642602
-0.420654 0.193115 -0.586914
-0.41870099 0.193481 -0.58789098
-0.41577101 0.193481 -0.58789098
-0.42627001 0.195923 -0.586914
-0.42333999 0.195923 -0.586914
-0.42138699 0.196289 -0.58789098
-0.41870099 0.196289 -0.58789098
-0.42627001 0.198608 -0.586914
-0.424072 0.198975 -0.58789098
-0.42138699 0.198975 -0.58789098
-0.42700201 0.201782 -0.58789098
-0.424072 0.201782 -0.58789098
-0.42700201 0.20458999 -0.58789098
-0.424072 0.20458999 -0.58789098
-0.42700201 0.207275 -0.58789098
-0.42700201 0.211487 -0.58789098
-0.424072 0.212891 -0.58789098
-0.42700201 0.21557599 -0.58789098
-0.424072 0.21557599 -0.58789098
-0.42700201 0.218384 -0.58789098
-0.424072 0.218384 -0.58789098
-0.42700201 0.221191 -0.58789098
-0.424072 0.221191 -0.58789098
-0.42700201 0.223877 -0.58789098
-0.424072 0.223877 -0.58789098
-0.42700201 0.226685 -0.58789098
-0.42700201 0.22949199 -0.58789098
-0.244385 0.328857 -0.58789098
-0.241699 0.328857 -0.58789098
-0.238892 0.328857 -0.58789098
-0.236084 0.328857 -0.58789098
-0.244385 0.33178699 -0.58789098
-0.241699 0.33178699 -0.58789098
-0.238892 0.33178699 -0.58789098
-0.236084 0.33178699 -0.58789098
-0.244385 0.33447301 -0.58789098
-0.241699 0.33447301 -0.58789098
-0.238892 0.33447301 -0.58789098
-0.236084 0.33447301 -0.58789098
-0.23339801 0.33447301 -0.58789098
-0.247192 0.33715799 -0.58789098
-0.244385 0.33715799 -0.58789098
-0.241699 0.33715799 -0.58789098
-0.238892 0.33715799 -0.58789098
-0.236084 0.33715799 -0.58789098
-0.23339801 0.33715799 -0.58789098
-0.34643599 -0.022033701 -0.58300799
-0.34326199 -0.0220032 -0.58203101
0.410889 -0.0138397 -0.58398402
-0.42480499 0.15393101 -0.584961
-0.42480499 0.156738 -0.584961
-0.42211899 0.156738 -0.584961
-0.41918901 0.156738 -0.584961
-0.424072 0.1605835 -0.58398402
-0.42175299 0.16070551 -0.58447254
-0.41918901 0.15942401 -0.584961
-0.416504 0.15942401 -0.584961
-0.424072 0.164673 -0.58398402
-0.42138699 0.164673 -0.58398402
-0.41918901 0.16357401 -0.584961
-0.416504 0.16357401 -0.584961
-0.413818 0.16357401 -0.584961
-0.424072 0.16748001 -0.58398402
-0.42138699 0.16748001 -0.58398402
-0.41918901 0.167725 -0.584961
-0.416504 0.167725 -0.584961
-0.413818 0.167725 -0.584961
-0.424072 0.170166 -0.58398402
-0.42138699 0.170166 -0.58398402
-0.41918901 0.17041001 -0.584961
-0.416504 0.17041001 -0.584961
-0.413818 0.17041001 -0.584961
-0.424072 0.17297401 -0.58398402
-0.42138699 0.17297401 -0.58398402
-0.41918901 0.173218 -0.584961
-0.416504 0.173218 -0.584961
-0.424072 0.175659 -0.58398402
-0.42138699 0.175659 -0.58398402
-0.41918901 0.176025 -0.584961
-0.416504 0.176025 -0.584961
-0.424072 0.17846701 -0.58398402
-0.42211899 0.178711 -0.584961
-0.41918901 0.178711 -0.584961
-0.424072 0.181152 -0.58398402
-0.42211899 0.181519 -0.584961
-0.41918901 0.181519 -0.584961
-0.424072 0.18396001 -0.58398402
-0.42211899 0.184204 -0.584961
-0.42480499 0.187012 -0.584961
-0.42480499 0.189697 -0.584961
-0.34521499 -0.0192261 -0.58105499
-0.34130901 -0.019165 -0.57910198
0.55908197 -0.0137711 -0.58105499
-0.338135 -0.0272827 -0.578125
-0.33740199 -0.0245209 -0.57714802
-0.33740199 -0.0218201 -0.57714802
0.55859399 -0.0109787 -0.578125
-0.33300799 -0.0270996 -0.57421899
-0.335693 -0.0189972 -0.57421899
-0.31957999 -0.0189972 -0.57421899
0.55615199 -0.016326901 -0.57519501
0.55615199 -0.0136261 -0.57519501
-0.33252001 -0.024352999 -0.57275403
-0.33252001 -0.021667499 -0.57275403
-0.31945801 -0.021606449 -0.571289
-0.33178699 -0.0189362 -0.57177699
-0.3221435 -0.0189209 -0.571289
-0.327393 -0.024185199 -0.56884801
-0.32421899 -0.024139401 -0.56787097
-0.327393 -0.0215149 -0.56884801
-0.32421899 -0.021469099 -0.56787097
-0.32421899 -0.0187988 -0.56787097
-0.32104501 -0.0240936 -0.56689501
-0.32104501 -0.0214386 -0.56689501
-0.311768 -0.021362299 -0.56494099
-0.32568401 -0.0187378 -0.56591803
-0.323975 -0.026580799 -0.56298798
-0.32031301 -0.026489301 -0.56103498
-0.31665 -0.0239716 -0.56396502
0.273193 -0.0080184899 -0.56103498
-0.311768 -0.0238037 -0.56005901
0.30480951 -0.018318199 -0.55322254
0.30835 -0.018295299 -0.55273402
0.30456549 -0.0130997 -0.55273402
0.298096 -0.010498 -0.55273402
0.30053699 -0.010498 -0.55273402
0.303711 -0.0105209 -0.553711
0.30737299 -0.01050945 -0.55322254
0.31103501 -0.010498 -0.55273402
0.29541001 -0.0079040499 -0.55273402
0.298096 -0.0079040499 -0.55273402
0.301025 -0.0079116803 -0.553711
0.303711 -0.0079116803 -0.553711
0.30639601 -0.0079116803 -0.553711
0.3103025 -0.0079116803 -0.553711
0.313721 -0.0079040499 -0.55273402
0.29370099 -0.0182037 -0.54980499
0.29638699 -0.0182037 -0.54980499
0.31054699 -0.0182648 -0.55175799
0.3134765 -0.018219 -0.55029297
0.29370099 -0.0156174 -0.54980499
0.296875 -0.0156403 -0.55078101
0.29956099 -0.0156403 -0.55078101
0.30273399 -0.015670801 -0.55175799
0.30468801 -0.0156403 -0.55078101
0.30737299 -0.0156403 -0.55078101
0.30932599 -0.0156174 -0.54980499
0.29126 -0.013031 -0.54980499
0.29443401 -0.0130539 -0.55078101
0.29736301 -0.0130768 -0.55175799
0.30004901 -0.0130768 -0.55175799
0.307861 -0.0130768 -0.55175799
0.30981401 -0.0130539 -0.55078101
0.31323248 -0.013031 -0.54980499
0.28857401 -0.0104446 -0.54980499
0.29174799 -0.0104599 -0.55078101
0.29492199 -0.0104828 -0.55175799
0.31396449 -0.01047135 -0.55126953
0.292236 -0.0078887902 -0.55175799
0.28710899 -0.0180969 -0.546875
0.28955099 -0.0180969 -0.546875
0.29833999 -0.018173199 -0.54882801
0.31640601 -0.018173199 -0.54882801
0.3195805 -0.018112149 -0.54736352
0.32299799 -0.0180969 -0.546875
0.32568401 -0.0180969 -0.546875
0.328125 -0.0180969 -0.546875
0.28442401 -0.0155334 -0.546875
0.28759801 -0.015564 -0.54785198
0.29077101 -0.0155869 -0.54882801
0.311279 -0.0155869 -0.54882801
0.313232 -0.015564 -0.54785198
0.31542999 -0.0155334 -0.546875
0.32299799 -0.0155334 -0.546875
0.32568401 -0.0155334 -0.546875
0.328857 -0.015564 -0.54785198
0.281982 -0.0129623 -0.546875
0.28491199 -0.0129852 -0.54785198
0.288086 -0.0130081 -0.54882801
0.3168945 -0.01297375 -0.54736352
0.320557 -0.0129623 -0.546875
0.32617199 -0.0129852 -0.54785198
0.329346 -0.0130081 -0.54882801
0.266357 -0.0103836 -0.546875
0.27929699 -0.0103836 -0.546875
0.282471 -0.0104065 -0.54785198
0.2854 -0.0104218 -0.54882801
0.31640601 -0.0104218 -0.54882801
0.31860399 -0.0104065 -0.54785198
0.32202148 -0.01039505 -0.54736352
0.326904 -0.0104218 -0.54882801
0.27978501 -0.0078277597 -0.54785198
0.28295901 -0.0078430204 -0.54882801
0.277832 -0.018005401 -0.54394501
0.28076199 -0.0180359 -0.54492199
0.28393599 -0.018066401 -0.54589802
0.27270499 -0.0154495 -0.54394501
0.27514601 -0.0154495 -0.54394501
0.27832001 -0.0154724 -0.54492199
0.28125 -0.0155029 -0.54589802
0.31738299 -0.0155029 -0.54589802
0.31982401 -0.0155029 -0.54589802
0.25976601 -0.012886 -0.54394501
0.26245099 -0.012886 -0.54394501
0.26538101 -0.0129089 -0.54492199
0.26757801 -0.012886 -0.54394501
0.27002001 -0.012886 -0.54394501
0.274414 -0.0129089 -0.54492199
0.27880901 -0.0129395 -0.54589802
0.32251 -0.0129395 -0.54589802
0.25732401 -0.0103302 -0.54394501
0.260254 -0.0103455 -0.54492199
0.263428 -0.0103683 -0.54589802
0.26855499 -0.0103683 -0.54589802
0.27050799 -0.0103455 -0.54492199
0.273193 -0.0103455 -0.54492199
0.27612299 -0.0103683 -0.54589802
0.326904 -0.0103455 -0.54492199
0.255371 -0.0153351 -0.540039
0.25988752 -0.01664355 -0.54150403
0.26293951 -0.016674049 -0.54248047
0.26550299 -0.016674049 -0.54248047
0.26831049 -0.015419 -0.54296899
0.32763699 -0.0153885 -0.54199201
0.21057101 -0.0128403 -0.54199201
0.213135 -0.0128403 -0.54199201
0.25292999 -0.0127945 -0.540039
0.25634801 -0.0128403 -0.54199201
0.32836899 -0.0128632 -0.54296899
0.25390601 -0.0102921 -0.54199201
0.25488299 -0.0178375 -0.53906298
0.257568 -0.0178375 -0.53906298
0.168457 -0.0127487 -0.538086
0.168457 -0.0102158 -0.538086
0.249878 -0.010231 -0.53906298
0.213623 -0.0152512 -0.53662097
0.25146499 -0.0152512 -0.53662097
0.202759 -0.0126724 -0.53466803
0.24853501 -0.0126953 -0.53564501
0.24560501 -0.0101547 -0.53466803
0.19409201 -0.0151062 -0.53173798
0.19702099 -0.0151367 -0.53271502
0.19909699 -0.0151062 -0.53173798
0.20166001 -0.0151062 -0.53173798
0.214111 -0.0151062 -0.53173798
0.246704 -0.0151062 -0.53173798
0.249146 -0.0176086 -0.53173798
0.194824 -0.0126495 -0.53369099
0.19738799 -0.0126495 -0.53369099
0.199829 -0.0126495 -0.53369099
0.204956 -0.0126495 -0.53369099
0.343018 -0.0126495 -0.53369099
0.241699 -0.0101013 -0.53173798
0.18810999 -0.0224762 -0.52880901
0.193359 -0.020034799 -0.52978498
0.190735 -0.016273499 -0.52929699
0.193359 -0.0175323 -0.52978498
0.196289 -0.0175629 -0.53076202
0.199646 -0.0175323 -0.52978498
0.20318601 -0.016273499 -0.52929699
0.21582 -0.0150452 -0.52978498
0.188354 -0.012558 -0.52978498
0.191284 -0.0125809 -0.53076202
0.243652 -0.0125809 -0.53076202
0.34350601 -0.0125809 -0.53076202
0.238281 -0.0100632 -0.52978498
0.187012 -0.0198822 -0.52587903
0.19018599 -0.0199585 -0.52783197
0.187378 -0.0174408 -0.52685499
0.18481451 -0.01371765 -0.52685547
0.18774401 -0.0149918 -0.52783197
0.23645 -0.0124588 -0.52587903
0.239868 -0.0125046 -0.52783197
0.37255901 -0.0149307 -0.52587903
0.170288 -0.010025 -0.52783197
0.22692899 -0.0100098 -0.52685499
0.229004 -0.0099868802 -0.52587903
0.231445 -0.0099868802 -0.52587903
0.234375 -0.0100098 -0.52685499
0.18383799 -0.022262599 -0.52392602
0.18383799 -0.019805901 -0.52392602
0.18103001 -0.0173035 -0.52294898
0.184204 -0.0173645 -0.52490199
0.178589 -0.0123901 -0.52294898
0.18139599 -0.01364515 -0.52392602
0.218262 -0.012413 -0.52392602
0.233032 -0.012413 -0.52392602
0.24096701 -0.0149078 -0.52490199
0.179932 -0.0220947 -0.52002001
0.17749 -0.0196533 -0.52002001
0.180664 -0.019729599 -0.52197301
0.177856 -0.0172424 -0.52099597
0.16928101 -0.013566975 -0.52099621
0.1727905 -0.01355365 -0.52050799
0.17541501 -0.01356505 -0.52099651
0.178223 -0.0148239 -0.52197301
0.229736 -0.0123672 -0.52197301
0.232544 -0.0147629 -0.52002001
0.23706099 -0.0148239 -0.52197301
0.3396 -0.0123444 -0.52099597
0.34326148 -0.0123444 -0.52099597
0.34619099 -0.0123215 -0.52002001
0.173218 -0.0099105798 -0.52197301
0.176514 -0.021972699 -0.51660198
0.171997 -0.019577 -0.51757801
0.174683 -0.019607499 -0.51855499
0.16955601 -0.0171356 -0.51757801
0.171997 -0.0171356 -0.51757801
0.174683 -0.0171661 -0.51855499
0.20080601 -0.017105101 -0.51660198
0.237305 -0.017105101 -0.51660198
0.240601 -0.0171661 -0.51855499
0.20117199 -0.0147095 -0.51757801
0.225586 -0.0122681 -0.51757801
0.336914 -0.014679 -0.51660198
0.33935499 -0.014679 -0.51660198
0.34326151 -0.014694249 -0.51708996
0.3479 -0.012291 -0.51855499
0.36108401 -0.014679 -0.51660198
0.33740199 -0.019424399 -0.51367199
0.340332 -0.019455001 -0.51464802
0.34204099 -0.019424399 -0.51367199
0.231079 -0.0169983 -0.51367199
0.234375 -0.0170746 -0.515625
0.33789101 -0.017044101 -0.51464802
0.34106401 -0.0170746 -0.515625
0.34362751 -0.017021202 -0.51416004
0.16369601 -0.0121994 -0.51464802
0.216919 -0.0121994 -0.51464802
0.220581 -0.0121994 -0.51464802
0.224243 -0.0146179 -0.51464802
0.227051 -0.0146484 -0.515625
0.345947 -0.0146484 -0.515625
0.23205601 -0.0193024 -0.51074201
0.23498499 -0.0193481 -0.51171899
0.333496 -0.0193481 -0.51171899
0.34448248 -0.019340549 -0.51171851
0.22485401 -0.016906699 -0.51074201
0.228149 -0.0169678 -0.51269501
0.33422899 -0.0169678 -0.51269501
0.344971 -0.016906699 -0.51074201
0.147949 -0.0145035 -0.51074201
0.160034 -0.0145035 -0.51074201
0.163086 -0.0145645 -0.51269501
0.220093 -0.0145035 -0.51074201
0.344971 -0.0145035 -0.51074201
0.23071299 -0.02277375 -0.50781298
0.233154 -0.0215759 -0.50781298
0.225952 -0.019195599 -0.50781298
0.229248 -0.019271901 -0.50976598
0.221558 -0.016845699 -0.508789
0.329346 -0.016845699 -0.508789
0.345947 -0.016845699 -0.508789
0.214478 -0.0144501 -0.508789
0.21679699 -0.0144501 -0.508789
0.32983401 -0.0144806 -0.50976598
0.34667999 -0.0144806 -0.50976598
0.101135 -0.02264405 -0.50488299
0.103516 -0.02264405 -0.50488299
0.105896 -0.02264405 -0.50488299
0.22664399 -0.022293068 -0.50585932
0.23413099 -0.0214539 -0.50488299
0.34399399 -0.0214996 -0.50585902
0.101135 -0.019073499 -0.50488299
0.103516 -0.019073499 -0.50488299
0.105896 -0.019073499 -0.50488299
0.146484 -0.0191193 -0.50585902
0.21984901 -0.019073499 -0.50488299
0.22314499 -0.019149801 -0.506836
0.23498499 -0.019149801 -0.506836
0.32788101 -0.019149801 -0.506836
0.34472701 -0.019149801 -0.506836
0.34570301 -0.019073499 -0.50488299
0.10376 -0.016738901 -0.50585902
0.105896 -0.0167084 -0.50488299
0.108276 -0.0167084 -0.50488299
0.163452 -0.0167694 -0.506836
0.198853 -0.016738901 -0.50585902
0.217896 -0.016738901 -0.50585902
0.25170901 -0.0167694 -0.506836
0.32421899 -0.0167084 -0.50488299
0.34643599 -0.016738901 -0.50585902
0.35351601 -0.016738901 -0.50585902
0.141479 -0.0143356 -0.50488299
0.144409 -0.014389 -0.506836
0.198853 -0.0143661 -0.50585902
0.211182 -0.014389 -0.506836
0.32495099 -0.0143661 -0.50585902
0.3479 -0.0143356 -0.50488299
0.097198501 -0.02254485 -0.50292999
0.109039 -0.021369949 -0.50292951
0.21850599 -0.0213318 -0.50195301
0.2215575 -0.022567749 -0.50341797
0.224121 -0.023788501 -0.50390601
0.32226601 -0.0213318 -0.50195301
0.344971 -0.0214081 -0.50390601
0.345947 -0.0213318 -0.50195301
0.097198501 -0.0189972 -0.50292999
0.109161 -0.019020099 -0.50341797
0.143555 -0.019043 -0.50390601
0.216553 -0.0189972 -0.50292999
0.235962 -0.019043 -0.50390601
0.32299799 -0.0189972 -0.50292999
0.34667999 -0.0189972 -0.50292999
0.34887701 -0.0189972 -0.50292999
0.097198501 -0.016632101 -0.50292999
0.110229 -0.016632101 -0.50292999
0.160156 -0.016677899 -0.50390601
0.211914 -0.016632101 -0.50292999
0.21472199 -0.016677899 -0.50390601
0.25146499 -0.0166016 -0.50195301
0.320068 -0.0166016 -0.50195301
0.34741199 -0.016677899 -0.50390601
0.34887701 -0.016632101 -0.50292999
0.320557 -0.0142822 -0.50292999
0.344971 -0.0143051 -0.50390601
0.348389 -0.0142517 -0.50195301
0.111877 -0.021240201 -0.49975601
0.21508801 -0.022392251 -0.49926752
0.21814001 -0.0236359 -0.50048798
0.233643 -0.021194501 -0.498779
0.31860399 -0.021240201 -0.49975601
0.34765601 -0.021286 -0.50048798
0.111877 -0.018890399 -0.49975601
0.140137 -0.018890399 -0.49975601
0.210205 -0.018859901 -0.498779
0.213379 -0.0189362 -0.50048798
0.31860399 -0.018890399 -0.49975601
0.111877 -0.016540499 -0.49975601
0.140137 -0.016540499 -0.49975601
0.208618 -0.016571 -0.50048798
0.253418 -0.016571 -0.50048798
0.31567401 -0.01651 -0.498779
0.137695 -0.0141907 -0.49975601
0.31103501 -0.0141678 -0.498779
0.31689501 -0.0142212 -0.50048798
0.11377 -0.021163899 -0.497803
0.13659699 -0.021072401 -0.49585
0.13952599 -0.021163899 -0.497803
0.209351 -0.021118199 -0.49682599
0.211914 -0.02230835 -0.49731451
0.31274399 -0.021163899 -0.497803
0.31518599 -0.021163899 -0.497803
0.11377 -0.0188141 -0.497803
0.13696299 -0.018783599 -0.49682599
0.207031 -0.018783599 -0.49682599
0.31518599 -0.0188141 -0.497803
0.11377 -0.0164795 -0.497803
0.13195799 -0.0164032 -0.49585
0.13452099 -0.016433701 -0.49682599
0.137207 -0.0164795 -0.497803
0.120361 -0.0140762 -0.49585
0.129639 -0.0140762 -0.49585
0.133545 -0.01412205 -0.49731451
0.31201199 -0.0141068 -0.49682599
0.2057495 -0.022140499 -0.49389648
0.208496 -0.0233612 -0.49487299
0.115173 -0.01982115 -0.49389601
0.118083 -0.0194041 -0.49292001
0.121948 -0.018631 -0.49292001
0.124268 -0.018631 -0.49292001
0.1278075 -0.019805901 -0.49340802
0.130656 -0.019439699 -0.49389634
0.133911 -0.01984405 -0.4943845
0.31079099 -0.0187073 -0.49487299
0.115417 -0.016372699 -0.49487299
0.117554 -0.0163422 -0.49389601
0.1211545 -0.01635745 -0.4943845
0.124512 -0.0163422 -0.49389601
0.127075 -0.016372699 -0.49487299
0.12939499 -0.016372699 -0.49487299
0.31079099 -0.016372699 -0.49487299
0.122437 -0.0140533 -0.49487299
0.124756 -0.0140533 -0.49487299
0.127075 -0.0140533 -0.49487299
0.305664 -0.0140228 -0.49389601
0.1156615 -0.023162801 -0.49072301
0.119385 -0.0232086 -0.49169901
0.121399 -0.023162801 -0.49072301
0.1248475 -0.023162801 -0.49072301
0.128296 -0.023162801 -0.49072301
0.130371 -0.023117101 -0.489746
0.13269 -0.023117101 -0.489746
0.119385 -0.0209045 -0.49169901
0.121643 -0.0209045 -0.49169901
0.123962 -0.0209045 -0.49169901
0.126221 -0.0209045 -0.49169901
0.18176299 -0.018585199 -0.49169901
0.18335 -0.0185089 -0.489746
0.201782 -0.01966095 -0.489746
0.30590799 -0.018554701 -0.49072301
0.1968385 -0.0162811 -0.49169901
0.30590799 -0.0162354 -0.49072301
0.19824199 -0.022979699 -0.48681599
0.201416 -0.0230713 -0.48877001
0.184448 -0.0184021 -0.48681599
0.19360401 -0.0184021 -0.48681599
0.196411 -0.0184326 -0.487793
0.19842499 -0.019561749 -0.48730451
0.23120099 -0.020767201 -0.48877001
0.19519 -0.020599401 -0.48486301
0.191284 -0.022689801 -0.48071301
0.194336 -0.0227814 -0.48266599
0.192017 -0.020523099 -0.48266599
0.22741701 -0.018173199 -0.48071301
0.2299805 -0.019317601 -0.48120099
0.26367199 -0.0204315 -0.48071301
0.26550251 -0.018226601 -0.4821775
0.193115 -0.024902301 -0.479736
0.230957 -0.019218449 -0.47876
0.26074201 -0.020385699 -0.479736
0.266846 -0.020339999 -0.47876
0.26757801 -0.0181274 -0.479736
0.296143 -0.0180969 -0.47876
0.296875 -0.0158691 -0.479736
0.189697 -0.024749801 -0.476807
0.22778299 -0.022506701 -0.476807
0.229004 -0.0224152 -0.47485399
0.184448 -0.020172101 -0.47485399
0.231323 -0.020172101 -0.47485399
0.1453245 -0.015716599 -0.47485399
0.149048 -0.0157471 -0.47582999
0.155762 -0.0179749 -0.47582999
0.187012 -0.0179749 -0.47582999
0.231812 -0.0179749 -0.47582999
0.291504 -0.015716599 -0.47485399
0.185791 -0.024536099 -0.47265601
0.1845095 -0.02228545 -0.472168
0.138916 -0.02005 -0.47167999
0.186279 -0.0201263 -0.47363299
0.232544 -0.020095799 -0.47265601
0.2353515 -0.02005 -0.47167999
0.142334 -0.01784515 -0.472168
0.14587399 -0.017867999 -0.47265601
0.14807101 -0.017867999 -0.47265601
0.1513675 -0.017867999 -0.47265601
0.18139599 -0.017867999 -0.47265601
0.18396001 -0.017898601 -0.47363299
0.232544 -0.017867999 -0.47265601
0.2353515 -0.017822299 -0.47167999
0.238647 -0.017822299 -0.47167999
0.24096701 -0.017822299 -0.47167999
0.29101601 -0.017898601 -0.47363299
-0.16394 -0.0309448 -0.46875
-0.1606445 -0.0309448 -0.46875
-0.16613799 -0.0287323 -0.46875
-0.16394 -0.0287323 -0.46875
-0.1606445 -0.0287323 -0.46875
-0.249878 -0.02542875 -0.46875
-0.16613799 -0.02542875 -0.46875
-0.16332966 -0.025080333 -0.46907568
-0.16027834 -0.025797501 -0.46875
-0.15734901 -0.02542875 -0.46875
0.140137 -0.0243225 -0.46875
0.142334 -0.0243225 -0.46875
0.14569101 -0.0243225 -0.46875
0.149048 -0.0243225 -0.46875
0.151245 -0.0243225 -0.46875
0.1815795 -0.0244064 -0.47021502
0.239868 -0.0243835 -0.46972701
0.241577 -0.0243225 -0.46875
-0.16613799 -0.022125199 -0.46875
-0.16320801 -0.022171 -0.46972701
-0.15991201 -0.022171 -0.46972701
0.136108 -0.022171 -0.46972701
0.1393435 -0.022171 -0.4697265
0.1427 -0.022171 -0.46972701
0.144897 -0.022171 -0.46972701
0.14819351 -0.022171 -0.46972701
0.151245 -0.022125199 -0.46875
0.153442 -0.022125199 -0.46875
0.176147 -0.022216801 -0.47070301
0.17797901 -0.022171 -0.46972701
0.180664 -0.022216801 -0.47070301
0.22937 -0.022216801 -0.47070301
0.232666 -0.022216801 -0.47070301
0.235962 -0.022216801 -0.47070301
0.23901349 -0.022193901 -0.47021502
0.242065 -0.022171 -0.46972701
0.24426299 -0.022171 -0.46972701
0.39575201 -0.022125199 -0.46875
0.136353 -0.0200043 -0.47070301
0.140747 -0.0200043 -0.47070301
0.14294399 -0.0200043 -0.47070301
0.145264 -0.0200043 -0.47070301
0.1485595 -0.0200043 -0.47070301
0.15185501 -0.0200043 -0.47070301
0.154053 -0.0200043 -0.47070301
0.180298 -0.0199585 -0.46972701
0.23901349 -0.019981399 -0.47021502
0.242065 -0.0199585 -0.46972701
0.24426299 -0.0199585 -0.46972701
0.39575201 -0.019912699 -0.46875
0.13855 -0.0177917 -0.47070301
0.242676 -0.0177917 -0.47070301
0.24426299 -0.017746 -0.46972701
0.39713565 -0.016268432 -0.46940136
0.354004 -0.0133057 -0.46875
0.362793 -0.0133057 -0.46875
-0.25268599 -0.030746499 -0.46557599
-0.25097701 -0.030807501 -0.46679699
-0.17163099 -0.030746499 -0.46557599
-0.1698 -0.030807501 -0.46679699
-0.16687 -0.0308685 -0.46777299
-0.25268599 -0.0285492 -0.46557599
-0.25018352 -0.028640751 -0.46728498
-0.169434 -0.0285492 -0.46557599
-0.167969 -0.0286713 -0.46777299
-0.156982 -0.0286713 -0.46777299
-0.25707999 -0.0241699 -0.46557599
-0.25390649 -0.025283825 -0.46588126
-0.251221 -0.025344849 -0.46728498
-0.169434 -0.025268551 -0.46557599
-0.167969 -0.025375351 -0.46777299
0.15386949 -0.0242233 -0.46667451
-0.25927699 -0.0219879 -0.46557599
-0.2562255 -0.022010799 -0.46618649
-0.1698 -0.022033701 -0.46679699
-0.167969 -0.022079499 -0.46777299
0.154907 -0.022033701 -0.46679699
0.345947 -0.022033701 -0.46679699
0.397461 -0.022033699 -0.46667451
0.15527301 -0.0198822 -0.46777299
0.176514 -0.019790599 -0.46557599
0.26464799 -0.0198364 -0.46679699
0.345947 -0.0198364 -0.46679699
0.397461 -0.0198364 -0.46667451
0.28149399 -0.0154114 -0.46557599
0.28491199 -0.01548 -0.46777299
0.34667969 -0.016904199 -0.46671534
0.34936535 -0.016164133 -0.46638998
0.35229531 -0.016866067 -0.46557602
0.35587564 -0.016164133 -0.46638998
0.35864252 -0.01652145 -0.46618649
0.36140966 -0.016878767 -0.465983
0.363525 -0.0154495 -0.46679699
0.398031 -0.016919466 -0.46712232
0.400635 -0.0154495 -0.46679699
0.4021 -0.0154114 -0.46557599
0.35107401 -0.0132828 -0.46777299
0.35546899 -0.0132828 -0.46777299
0.3587645 -0.0132828 -0.46777299
-0.26513699 -0.0306702 -0.4646
-0.26293901 -0.0306702 -0.4646
-0.2596435 -0.0306702 -0.4646
-0.25634801 -0.0306702 -0.4646
-0.25415 -0.0306702 -0.4646
-0.26733401 -0.0284882 -0.4646
-0.26513699 -0.0284882 -0.4646
-0.26293901 -0.0284882 -0.4646
-0.2596435 -0.0284882 -0.4646
-0.25634801 -0.0284882 -0.4646
-0.25415 -0.0284882 -0.4646
-0.17199701 -0.02842715 -0.46362299
-0.26733401 -0.025215151 -0.4646
-0.26513699 -0.025215151 -0.4646
-0.26293901 -0.025215151 -0.4646
-0.2596435 -0.025215151 -0.4646
-0.25634801 -0.026306201 -0.4646
-0.17199701 -0.025157925 -0.46362299
0.176147 -0.024124101 -0.4646
-0.26074201 -0.0219269 -0.4646
-0.1721805 -0.021903999 -0.46411151
0.263428 -0.0219269 -0.4646
0.26464799 -0.021835299 -0.46264601
0.34643599 -0.0219269 -0.4646
0.3497315 -0.0219269 -0.4646
0.35302699 -0.0219269 -0.4646
0.35559052 -0.0218811 -0.46362299
0.35888699 -0.0218811 -0.46362299
0.36181653 -0.0218582 -0.4631345
0.39892599 -0.0219269 -0.4646
-0.174927 -0.0196686 -0.46264601
0.26513699 -0.0196991 -0.46362299
0.34643599 -0.019744899 -0.4646
0.3497315 -0.019744899 -0.4646
0.35302699 -0.019744899 -0.4646
0.355225 -0.019744899 -0.4646
0.35852051 -0.019744899 -0.4646
0.36181599 -0.019744899 -0.4646
0.364014 -0.019744899 -0.4646
0.39892599 -0.019744899 -0.4646
0.40112299 -0.019744899 -0.4646
0.40258801 -0.0196991 -0.46362299
0.27978501 -0.0174866 -0.46264601
0.28320301 -0.0175629 -0.4646
0.364014 -0.0175629 -0.4646
0.39892599 -0.0175629 -0.4646
0.40039101 -0.017517099 -0.46362299
-0.17517051 -0.02824405 -0.46069351
-0.175354 -0.026107799 -0.46118152
-0.178101 -0.02278135 -0.45971701
-0.175354 -0.022850048 -0.46118152
0.265625 -0.0217438 -0.460693
0.27856401 -0.0217438 -0.460693
0.39697301 -0.021698 -0.45971701
-0.180176 -0.0195313 -0.45971701
-0.17846701 -0.019577 -0.460693
-0.17626999 -0.019577 -0.460693
0.265625 -0.019577 -0.460693
0.27856401 -0.019577 -0.460693
0.28125 -0.019622801 -0.46167001
0.26855451 -0.017395049 -0.46020502
0.27148399 -0.0173798 -0.45971701
0.400879 -0.017456099 -0.46167001
-0.18335 -0.0279999 -0.456543
-0.181152 -0.0279999 -0.456543
-0.1785275 -0.028091401 -0.45825201
-0.18335 -0.0258484 -0.456543
-0.181641 -0.0259094 -0.457764
-0.1785275 -0.025939949 -0.45825201
-0.18335 -0.022628799 -0.456543
-0.181641 -0.022682149 -0.457764
-0.17981 -0.02272795 -0.45874
0.2662355 -0.022705048 -0.45825201
0.26879901 -0.021652199 -0.45874
0.2712405 -0.021606449 -0.45764148
0.27392599 -0.021560701 -0.456543
0.27880901 -0.021606401 -0.457764
0.398193 -0.021652199 -0.45874
0.26660201 -0.0194855 -0.45874
0.26879901 -0.0194855 -0.45874
0.2716065 -0.01947025 -0.45825201
0.27514601 -0.0194855 -0.45874
0.27294901 -0.017333999 -0.45874
0.27514601 -0.017333999 -0.45874
-0.184692 -0.0278778 -0.45458999
-0.184692 -0.0257416 -0.45458999
-0.184692 -0.0236053 -0.45458999
0.27075201 -0.0236053 -0.45458999
0.27343801 -0.023651101 -0.45556599
0.27929699 -0.0214539 -0.45458999
0.28088349 -0.0193634 -0.45556599
0.28295901 -0.019271901 -0.45361301
-0.049560498 -0.027633701 -0.45068401
-0.046371453 -0.027633701 -0.45068401
-0.049560498 -0.025512701 -0.45068401
-0.046371453 -0.025512701 -0.45068401
-0.051666301 -0.022331249 -0.45068401
-0.049606301 -0.0223541 -0.45117199
-0.046424877 -0.0223541 -0.45117199
-0.298096 -0.028564449 -0.44872999
-0.296143 -0.028564449 -0.44872999
-0.29272467 -0.028152501 -0.44751
-0.0556641 -0.0275116 -0.44872999
-0.052551251 -0.027542099 -0.44921851
-0.042999301 -0.0275116 -0.44872999
-0.29882848 -0.0253677 -0.44812
-0.296143 -0.025390601 -0.44872999
-0.29260251 -0.0253677 -0.44812
-0.055542 -0.0253448 -0.44751
-0.052551251 -0.02542115 -0.44921851
-0.043090802 -0.025451699 -0.449707
-0.296143 -0.023284899 -0.44872999
-0.29260251 -0.023262 -0.44812
-0.28906301 -0.0232391 -0.44751
-0.11261 -0.021179199 -0.44872999
-0.057647701 -0.0232391 -0.44751
-0.055725098 -0.022254949 -0.44921851
-0.053619351 -0.022254949 -0.44921851
-0.043090802 -0.0233307 -0.449707
-0.299072 -0.0273895 -0.44653299
-0.28922498 -0.028783167 -0.44653299
-0.28515601 -0.027252199 -0.44457999
-0.107422 -0.027252199 -0.44457999
-0.28857401 -0.0252838 -0.44653299
-0.28515601 -0.0251617 -0.44457999
-0.111633 -0.0251617 -0.44457999
-0.109497 -0.0251617 -0.44457999
-0.107422 -0.0251617 -0.44457999
-0.057525601 -0.0252838 -0.44653299
-0.111877 -0.0231323 -0.445557
-0.109741 -0.0231323 -0.445557
-0.28442401 -0.029281599 -0.44360399
-0.28173801 -0.02817535 -0.44262701
-0.111796 -0.027826965 -0.44262698
-0.109253 -0.0282364 -0.44360399
-0.107178 -0.029281599 -0.44360399
-0.061035201 -0.027069099 -0.44165
-0.059204102 -0.027191199 -0.44360399
-0.28173801 -0.0250549 -0.44262701
-0.119141 -0.0249939 -0.44165
-0.112915 -0.0249939 -0.44165
-0.0613098 -0.025116 -0.44360399
-0.059204102 -0.025116 -0.44360399
-0.119141 -0.022918699 -0.44165
-0.113464 -0.0230255 -0.44360399
-0.114746 -0.031158401 -0.44067401
-0.118896 -0.028045699 -0.44067401
-0.115275 -0.028350832 -0.44002268
-0.112671 -0.0290833 -0.44067401
-0.11596667 -0.025594065 -0.44002268
-0.1157835 -0.022872901 -0.44067401
0.4064945 -0.0227661 -0.43847701
0.40332001 -0.018646199 -0.43847701
0.40600598 -0.019691501 -0.439087
0.40885401 -0.020044999 -0.43929031
0.40649399 -0.016616801 -0.439697
0.408447 -0.016616801 -0.439697
0.398682 -0.022613499 -0.43554699
0.40258801 -0.0227051 -0.4375
0.398682 -0.0205536 -0.43554699
0.399414 -0.018554701 -0.43652299
0.40258801 -0.0206604 -0.4375
0.26416001 -0.022506701 -0.43359399
0.39379901 -0.022445699 -0.43261701
0.205566 -0.020507799 -0.43457001
0.394775 -0.019447301 -0.43359399
0.389893 -0.0223541 -0.430664
0.055786099 -0.020278901 -0.429443
0.058944702 -0.0203247 -0.430664
0.39086899 -0.0193558 -0.43164101
0.058548003 -0.022193899 -0.4274905
0.061554 -0.0221863 -0.42749
0.065429702 -0.022140499 -0.426514
0.38232401 -0.022140499 -0.426514
0.38622999 -0.0222473 -0.42846701
0.38330099 -0.0201874 -0.42749
0.38622999 -0.020233201 -0.42846701
0.058120698 -0.028030399 -0.42456099
0.061126702 -0.028030399 -0.42456099
0.064178497 -0.0280609 -0.42504901
0.067260697 -0.028091401 -0.42553699
0.069091797 -0.028030399 -0.42456099
-0.054534901 -0.0259705 -0.42358401
-0.028686501 -0.02500155 -0.4240725
0.055053703 -0.02500155 -0.4240725
0.058227524 -0.025077799 -0.425293
0.061187752 -0.02506255 -0.42504901
0.064208999 -0.025077799 -0.425293
0.067260697 -0.025093049 -0.42553699
0.069274902 -0.025093049 -0.42553699
0.097045898 -0.0260315 -0.42456099
0.107056 -0.025032051 -0.42456099
0.05307005 -0.023002651 -0.4240725
0.0552673 -0.0220947 -0.42553699
0.0632324 -0.0220947 -0.42553699
0.37768599 -0.0219879 -0.42358401
0.28393549 -0.018058799 -0.42504901
0.286255 -0.019012451 -0.4240725
0.038787801 -0.033691399 -0.42041001
0.040771499 -0.033691399 -0.42041001
-0.028518699 -0.027832 -0.42163101
-0.026474001 -0.0277557 -0.42041001
0.054870602 -0.0278931 -0.422607
0.112244 -0.027832 -0.42163101
-0.026535001 -0.0258484 -0.42163101
0.052887 -0.0259094 -0.422607
0.109375 -0.025878899 -0.42211902
0.111938 -0.0257874 -0.42041001
-0.026535001 -0.0238647 -0.42163101
0.050781298 -0.0218811 -0.42163101
0.109375 -0.023895249 -0.42211902
0.111938 -0.0238037 -0.42041001
0.27734351 -0.019874599 -0.42102051
0.280029 -0.019851699 -0.42041001
0.28271499 -0.0198975 -0.42163101
0.28784201 -0.019851699 -0.42041001
0.27929699 -0.0179596 -0.422607
0.042633101 -0.033599898 -0.41943401
-0.289307 -0.0295258 -0.41747999
0.109436 -0.027633701 -0.418457
-0.024307299 -0.0256042 -0.41747999
0.049301147 -0.0256042 -0.41747999
0.1931155 -0.0256653 -0.418457
0.27807599 -0.0256042 -0.41747999
0.280029 -0.0256042 -0.41747999
0.28320348 -0.025634751 -0.41796851
-0.024368299 -0.0227127 -0.418457
0.049174 -0.023071298 -0.41910836
0.113647 -0.021774299 -0.41943401
0.115051 -0.021667499 -0.41747999
0.117065 -0.021667499 -0.41747999
0.19458 -0.0237427 -0.41943401
0.27807599 -0.0236359 -0.41747999
0.28035501 -0.022415167 -0.4191083
0.28344736 -0.023056032 -0.41878268
0.28564468 -0.022359231 -0.41813135
0.28979501 -0.021667499 -0.41747999
-0.024307299 -0.0196991 -0.41747999
0.034576401 -0.0196991 -0.41747999
0.28515601 -0.019805901 -0.41943401
-0.29101601 -0.03125 -0.41455099
-0.29101601 -0.0293121 -0.41455099
-0.28979501 -0.0293884 -0.41552699
-0.024200451 -0.0284042 -0.41552749
-0.0221863 -0.027358999 -0.41455099
0.051879901 -0.027358999 -0.41455099
-0.0222473 -0.0254822 -0.41552699
0.112854 -0.0255432 -0.416504
0.114258 -0.025405901 -0.41455099
0.188721 -0.0254822 -0.41552699
0.195068 -0.0255432 -0.416504
0.27465799 -0.0254822 -0.41552699
0.28515601 -0.0255432 -0.416504
0.28955099 -0.025405901 -0.41455099
0.2924805 -0.025405901 -0.41455099
0.296143 -0.0254822 -0.41552699
0.298706 -0.025444049 -0.415039
-0.0222473 -0.02253725 -0.41552699
0.0324402 -0.021560701 -0.41552699
0.034423798 -0.021560701 -0.41552699
0.0362854 -0.0215149 -0.41455099
0.04608155 -0.022514351 -0.415039
0.112854 -0.023574799 -0.416504
0.11523449 -0.023468001 -0.41455099
0.19073501 -0.02254485 -0.41552749
0.25195301 -0.0216217 -0.416504
0.25646949 -0.021591201 -0.41601551
0.26416001 -0.0215149 -0.41455099
0.27099651 -0.022491451 -0.41455099
0.274048 -0.022567749 -0.41601551
0.28710899 -0.02259825 -0.416504
0.289673 -0.0235443 -0.41601551
0.29158533 -0.022216799 -0.41552734
0.295349 -0.022552501 -0.41577125
0.298096 -0.02253725 -0.41552699
0.30065951 -0.022514351 -0.415039
-0.0221863 -0.019561799 -0.41455099
0.0324402 -0.019607499 -0.41552699
0.25781301 -0.0196533 -0.416504
0.25976601 -0.0196533 -0.416504
0.266846 -0.019607499 -0.41552699
0.26879901 -0.019607499 -0.41552699
0.29553199 -0.019630399 -0.41601551
0.29882801 -0.0196533 -0.416504
0.30102551 -0.019607499 -0.41552699
-0.022033701 -0.031036399 -0.41137701
-0.18847699 -0.0271606 -0.41137701
-0.022079499 -0.029174799 -0.41259801
-0.020118698 -0.028167699 -0.41198751
0.049804699 -0.027298 -0.41357401
0.113953 -0.027298 -0.41357401
0.115662 -0.027236899 -0.41259801
0.11831701 -0.028148625 -0.41168225
0.121155 -0.0271606 -0.41137701
0.123108 -0.02812955 -0.41137701
-0.184082 -0.0252838 -0.41259801
-0.0191727 -0.0252838 -0.41247553
0.028274501 -0.025222801 -0.41137701
0.031219501 -0.0252533 -0.41198751
0.034088101 -0.025222801 -0.41137701
0.036010701 -0.025222801 -0.41137701
0.0458069 -0.0252838 -0.41259801
0.098388702 -0.0253448 -0.41357401
0.100342 -0.0253448 -0.41357401
0.115906 -0.0253448 -0.41357401
0.1185305 -0.0252838 -0.41259801
0.121155 -0.025222801 -0.41137701
0.123108 -0.025222801 -0.41137701
0.26611301 -0.025222801 -0.41137701
0.26806599 -0.025222801 -0.41137701
0.27148399 -0.0253448 -0.41357401
0.30114749 -0.025314301 -0.413086
-0.0191727 -0.022384649 -0.41247553
0.028274501 -0.022331249 -0.41137701
0.030980432 -0.022740668 -0.41324869
0.0342407 -0.023406999 -0.41357401
0.037424732 -0.0227203 -0.41292334
0.041870151 -0.02235415 -0.41198751
0.043914802 -0.0224075 -0.413086
0.118683 -0.02337645 -0.413086
0.12146 -0.023345901 -0.41259801
0.123413 -0.023345901 -0.41259801
0.25707999 -0.0214081 -0.41259801
0.260986 -0.0214081 -0.41259801
0.265625 -0.022705069 -0.41251636
0.26818851 -0.0224075 -0.413086
0.27343801 -0.021469099 -0.41357401
0.30240899 -0.0220591 -0.41251636
-0.0201416 -0.0194702 -0.41259801
0.0302887 -0.0194702 -0.41259801
0.25976601 -0.019516001 -0.41357401
0.30249 -0.019516001 -0.41357401
0.303711 -0.0194702 -0.41259801
-0.022033701 -0.0174866 -0.41137701
-0.02005 -0.0309601 -0.4104
0.126587 -0.0309601 -0.4104
-0.187012 -0.028884901 -0.408447
-0.18438751 -0.027961751 -0.40893552
-0.180298 -0.0270996 -0.4104
-0.17932101 -0.028884901 -0.408447
-0.018066399 -0.02799225 -0.4094235
0.0262146 -0.0279999 -0.40942401
0.02817535 -0.028030399 -0.40991199
0.031063074 -0.028030401 -0.40991202
0.034866326 -0.027996074 -0.40942377
0.037750199 -0.0270386 -0.40942401
0.046493549 -0.027069099 -0.40991199
0.049438499 -0.0290222 -0.4104
0.110962 -0.0270386 -0.40942401
0.12085 -0.0290222 -0.4104
0.124695 -0.0280609 -0.4104
0.1274415 -0.028030399 -0.40991199
0.130656 -0.0282949 -0.40909836
0.13208 -0.0270386 -0.40942401
-0.286865 -0.026962301 -0.408447
-0.181274 -0.026962301 -0.408447
-0.016120899 -0.026031502 -0.40893549
-0.014183 -0.025039701 -0.408447
0.024912534 -0.025721235 -0.409098
0.037841801 -0.0251617 -0.4104
0.040542599 -0.025039701 -0.408447
0.043533299 -0.026062001 -0.4094235
0.124695 -0.0251617 -0.4104
0.1274415 -0.0251312 -0.40991199
0.130127 -0.025100701 -0.40942401
0.13208 -0.025100701 -0.40942401
0.26367199 -0.0251617 -0.4104
0.302246 -0.0251617 -0.4104
-0.0161667 -0.0222473 -0.40991199
-0.014183 -0.022155801 -0.408447
0.02523805 -0.022201551 -0.40917951
0.039703399 -0.023178101 -0.40942401
0.12756351 -0.0232391 -0.4104
0.130127 -0.023178101 -0.40942401
0.13208 -0.023178101 -0.40942401
0.184082 -0.023178101 -0.40942401
0.18652301 -0.0232391 -0.4104
0.254639 -0.023117101 -0.408447
0.25781301 -0.021301299 -0.4104
0.26049799 -0.023117101 -0.408447
0.30249 -0.022216801 -0.4094235
-0.018112199 -0.019378699 -0.4104
-0.016098 -0.0192871 -0.408447
0.0261536 -0.0192871 -0.408447
0.028213499 -0.019378699 -0.4104
-0.0218658 -0.0154419 -0.408447
-0.019337934 -0.016749067 -0.409098
0.030136099 -0.0174408 -0.4104
0.0050201402 0.0268097 -0.408447
0.00694275 0.0268097 -0.408447
0.0040607452 0.0287323 -0.408447
0.0079040546 0.0287323 -0.408447
0.0011797 0.0306549 -0.408447
0.0043932595 0.031372067 -0.40942398
0.0079155006 0.031673424 -0.40917975
0.0107803 0.0316086 -0.408447
0.018417399 -0.036468498 -0.407471
0.020278901 -0.034484901 -0.40649399
